ply
format ascii 1.0
element vertex 302
property float x
property float y
property float z
property float nx
property float ny
property float nz
property uchar diffuse_red
property uchar diffuse_green
property uchar diffuse_blue
end_header
-5.3972 -4.5369 13.2363 -0.229674 -0.673344 -0.70275 96 99 65
-4.47464 -4.00701 10.9026 -0.815688 0.296647 -0.496643 64 68 47
-3.96592 -4.25468 9.98201 -0.696782 0.274728 -0.662586 50 58 45
-5.38424 -3.65657 12.3046 -0.173936 -0.626845 -0.759481 111 118 77
-4.26941 -3.14749 9.75943 -0.677652 0.231182 -0.698099 67 69 50
-4.01306 -3.58126 9.46043 -0.681897 0.137477 -0.718412 55 61 45
-3.94802 -2.84695 8.72311 -0.632113 0.211629 -0.745417 59 63 46
-3.46957 -2.52313 7.47267 -0.676863 0.278464 -0.681406 53 59 45
-4.20397 -2.36115 9.08479 -0.540213 -0.310294 -0.782232 79 81 56
-3.69203 -2.39919 9.15969 -0.53572 0.352435 -0.767329 61 65 48
-3.30886 -2.09997 7.39088 -0.651939 0.405311 -0.640858 56 62 48
-4.28247 -1.42214 8.31779 -0.822293 0.191402 -0.535911 94 101 62
-3.7289 -1.79337 8.35458 -0.823937 0.290498 -0.486557 71 74 52
-3.2745 -2.10431 8.38515 -0.833902 0.317672 -0.451323 50 58 43
-3.23808 -1.79564 8.56501 -0.741608 -0.3909 -0.545174 55 61 44
-1.25398 -2.02623 5.06119 0.620344 0.575889 -0.53247 53 64 46
-0.930553 -2.26952 5.02761 -0.00323749 0.942913 -0.333024 34 49 26
-3.08856 -1.27297 7.51447 -0.407751 0.106918 -0.906812 58 62 48
-2.80067 -1.70603 7.0966 -0.259344 0.736958 -0.624207 50 55 44
-2.42148 -1.55812 6.8881 -0.330476 -0.634503 -0.698707 47 56 39
-1.30057 -1.91685 5.67931 0.582488 0.435007 -0.686641 56 71 48
-0.788446 -1.99938 6.15003 0.617611 0.217809 -0.755722 31 45 22
-3.40037 -1.1626 8.19399 -0.51904 -0.414652 -0.747436 71 75 53
-2.91373 -0.8642 7.29341 -0.453725 -0.155547 -0.877462 37 89 118
-2.69227 -1.25309 7.10602 -0.557482 0.131689 -0.819678 54 62 54
-2.3765 -1.06531 6.48497 -0.589433 -0.406187 -0.69827 33 92 120
-1.45332 -1.48414 6.4119 0.603521 0.37227 -0.705108 65 85 69
-0.94996 -1.54896 6.76843 0.599267 0.363467 -0.713282 39 64 51
-1.27275 -1.68297 6.28569 0.579708 0.446435 -0.681641 61 76 53
-0.445345 -1.6153 7.13743 0.68768 0.206112 -0.696142 37 65 52
-0.254112 -2.00413 5.82434 0.671228 0.369349 -0.642678 36 53 24
0.272298 -2.28969 7.19023 0.651964 0.407924 -0.639173 42 64 27
-3.2219 -0.35342 7.2941 -0.468369 0.264949 -0.842872 64 120 160
-2.73618 -0.468217 7.08872 -0.425003 -0.129009 -0.895951 75 128 173
-1.64886 -1.01948 7.02556 0.590626 0.429239 -0.683311 26 121 187
-1.29479 -1.17657 6.66102 0.481628 0.601711 -0.637164 33 114 163
-4.09034 0.0952144 8.55847 -0.502355 0.624477 -0.598054 68 99 65
-3.13402 0.0490793 5.88529 -0.687931 -0.541654 -0.483076 208 212 214
-2.81365 -0.354626 7.13685 -0.418015 0.154046 -0.895284 108 146 178
-2.35407 -0.348299 6.76239 -0.349209 -0.483717 -0.80254 168 185 198
-1.87827 -0.234223 6.78476 0.22873 0.0606797 -0.971597 230 234 233
-4.15652 0.754157 9.1082 -0.767773 0.317197 -0.556697 65 91 46
-3.38749 0.656588 8.09193 -0.678632 -0.0103263 -0.734406 216 221 214
-3.71886 0.38605 8.48688 -0.681468 -0.0509328 -0.730074 146 166 140
-3.06494 0.391683 7.55997 -0.823421 -0.151159 -0.546927 226 228 227
-2.50869 0.257751 5.56978 0.00207838 -0.822791 -0.568341 244 246 249
-2.20469 0.0476042 6.44145 0.357336 -0.638511 -0.681626 244 244 245
-3.92581 1.3048 8.33243 -0.50568 -0.580977 -0.637772 151 163 140
-3.73174 0.916749 8.38047 -0.748427 0.312991 -0.584717 168 181 159
-3.72994 0.938787 8.64877 -0.688617 0.0679616 -0.721934 159 172 149
-1.85084 0.487043 5.67681 0.358777 -0.647615 -0.672216 154 158 164
-1.66852 0.201782 6.78932 0.197108 -0.743689 -0.638807 244 246 249
-0.648119 0.0777008 4.90221 -0.358785 -0.823885 -0.438733 230 233 233
-4.40309 1.76897 8.80157 -0.733987 -0.458451 -0.501086 132 162 145
-3.29442 1.10455 5.84102 -0.766581 0.363004 -0.5297 230 233 236
-3.51617 1.39277 5.66427 -0.799758 0.255463 -0.543255 232 236 238
-1.47924 0.452703 3.93944 -0.355888 -0.832926 -0.423767 69 72 81
-0.639605 0.442945 4.24196 -0.32831 -0.843 -0.426103 120 124 130
-4.31416 2.26871 8.30459 -0.73428 -0.462943 -0.496504 127 176 211
-3.27936 1.43054 4.32444 -0.745467 0.253104 -0.616618 231 234 238
-2.56953 1.11796 3.40357 -0.306988 -0.859646 -0.408372 48 53 58
-2.459 1.06283 3.21727 -0.335284 -0.853342 -0.399241 41 45 50
-2.40084 1.00229 3.15809 0.0267178 -0.837 -0.546551 43 47 52
-1.08277 0.55358 2.06729 0.468397 -0.632643 -0.616739 88 94 105
-0.358545 0.530328 2.82998 0.494295 -0.550575 -0.672711 246 254 253
-4.3459 2.7545 7.83008 -0.829449 -0.0868031 -0.551797 83 145 195
-4.08246 2.46004 7.47544 -0.819115 -0.111446 -0.5627 221 242 249
-2.89788 1.52426 2.67774 -0.373152 -0.469701 -0.800087 43 46 52
-2.50499 1.35208 2.46824 -0.840167 -0.18878 -0.508411 92 95 100
-2.54102 1.29771 2.35185 -0.819862 -0.218678 -0.529156 79 82 87
-2.28435 1.17503 2.539 -0.696205 -0.471106 -0.541624 90 94 99
-1.74477 1.04889 1.85457 0.16697 -0.338985 -0.925857 123 126 133
-1.84029 1.11745 2.59292 -0.700121 -0.506417 -0.503362 122 126 132
-1.5634 0.782817 2.0316 -0.627432 -0.462227 -0.626638 43 47 57
-1.24624 0.768771 1.84269 0.325869 -0.119629 -0.937816 35 39 49
-1.28668 0.799343 2.00974 -0.306481 -0.497044 -0.811798 37 42 50
-0.677183 0.768998 2.23888 0.388828 -0.392868 -0.833347 115 119 127
-0.414312 0.79202 2.50377 0.517917 -0.441336 -0.732792 204 209 216
-4.63204 3.21755 8.17897 -0.298998 -0.412049 -0.860706 25 89 143
-4.17773 3.12728 7.58817 -0.836064 -0.125996 -0.533969 115 152 178
-3.82408 3.17464 7.02725 -0.840977 -0.242855 -0.483507 190 203 202
-3.06144 1.80777 2.70802 -0.592055 0.378458 -0.711505 42 45 50
-2.77007 1.80552 2.54086 -0.410931 0.0971765 -0.906473 89 91 97
-2.72473 1.54428 2.6952 -0.814133 -0.251357 -0.523458 50 52 58
-2.52507 1.75324 2.44709 -0.838081 -0.0247838 -0.544982 144 147 152
-2.41556 1.45374 2.45417 -0.685833 -0.158297 -0.710334 131 134 139
-2.06998 1.34925 2.35113 -0.790445 -0.398438 -0.465236 125 128 133
-1.93516 1.44113 2.34099 -0.643669 -0.442503 -0.624405 136 139 144
-1.73742 1.36886 2.35796 -0.304521 -0.43531 -0.847214 133 136 142
-1.47368 1.03093 1.88579 0.350201 -0.438464 -0.827712 102 104 111
-1.32854 1.25987 1.91633 0.0428869 -0.146263 -0.988316 136 139 147
-1.20895 1.0445 2.01753 0.0180677 -0.284433 -0.958526 63 67 75
-0.643998 1.01489 1.9163 0.588938 -0.0258992 -0.807763 60 65 73
-0.0879207 1.05442 2.56276 0.254246 -0.00754489 -0.96711 195 205 216
0.0825999 0.853249 2.9967 0.596237 0.143617 -0.789858 244 250 253
-4.06237 3.59141 7.20112 -0.272845 -0.309267 -0.910994 92 109 105
-2.5914 2.11365 2.6203 0.0350308 0.246539 -0.968499 156 158 164
-2.17887 1.71364 2.18603 -0.498723 0.152103 -0.853311 165 168 174
-1.52039 1.6723 2.21106 0.162339 -0.458425 -0.873781 165 168 174
-1.21493 1.525 1.99057 -0.265678 0.14627 -0.952901 142 145 153
-1.34697 1.57489 2.21565 0.406564 -0.0507925 -0.912209 151 154 162
-1.06503 1.26714 1.95309 0.00998817 -0.0732543 -0.997263 94 96 105
-0.788381 1.26755 1.96823 -0.111087 0.285226 -0.952001 38 42 50
-0.870362 1.50597 2.04679 0.0737084 0.220975 -0.97249 89 91 100
-0.385 1.2806 2.20293 0.351262 0.150954 -0.924028 62 71 82
-0.0333405 1.35602 2.5453 0.619306 -0.110161 -0.777383 138 142 149
1.64307 1.81039 5.55073 0.581918 -0.261242 -0.770146 157 160 170
2.98628 1.86354 7.18765 0.410221 -0.534437 -0.738983 53 88 111
-2.89936 2.43449 3.26627 -0.806636 0.241837 -0.539308 32 35 40
-2.42151 2.4567 2.72771 0.199135 0.401989 -0.893728 173 174 181
-2.22441 2.03946 2.36838 -0.499604 0.567984 -0.654056 173 176 182
-1.75554 1.88867 2.357 -0.352411 0.423925 -0.834323 180 183 191
-1.33287 1.75805 1.95992 -0.196501 0.12221 -0.972858 127 130 137
-1.01532 1.76392 1.90978 0.0858025 0.0225666 -0.996057 120 123 130
-1.03555 1.77647 1.92012 0.0965084 0.032365 -0.994806 121 123 131
-0.559072 1.51606 2.10009 0.229372 0.244541 -0.942119 55 59 65
-0.730312 1.77495 2.09482 0.272443 -0.082654 -0.958615 90 92 99
-0.240448 1.55131 2.28202 0.574366 -0.118345 -0.809999 54 58 65
-0.417147 1.74121 2.08512 0.455336 -0.158965 -0.876013 38 41 45
0.0346054 1.68184 2.48672 0.611691 -0.0927337 -0.785643 126 130 134
0.348121 1.77397 2.78915 0.0447567 0.171107 -0.984235 166 169 169
-2.61088 3.00484 3.20057 -0.595552 0.486247 -0.639439 42 43 48
-2.19098 2.7959 2.87854 -0.0830342 0.424133 -0.901785 183 184 189
-1.95568 2.49505 2.843 -0.0517449 0.43159 -0.900585 179 181 187
-1.68339 2.46494 2.5289 0.302738 0.561731 -0.76994 170 172 179
-1.46132 1.99736 1.93514 -0.535173 0.22592 -0.813971 145 147 156
-1.17426 2.0462 1.96924 0.10072 -0.716249 -0.690538 162 164 170
-0.892608 2.03667 1.95679 0.187512 -0.339271 -0.92181 142 142 148
-0.171275 1.87006 2.22911 0.540552 -0.24513 -0.804807 61 64 68
0.226042 2.083 2.62588 0.466347 -0.258964 -0.845847 165 167 169
0.853411 2.01082 3.4935 -0.0495102 -0.470985 -0.880751 190 194 196
0.936696 1.96781 3.04969 0.422083 0.324144 -0.846627 190 193 196
2.32074 2.14603 5.46955 0.17335 -0.823733 -0.539827 154 162 162
-4.28755 5.70077 9.18629 -0.32236 0.366004 -0.872998 106 125 82
-3.82311 5.77572 9.15015 -0.464799 -0.19401 -0.863899 171 169 159
-2.66517 3.36214 3.52419 -0.626544 0.252361 -0.737399 37 38 40
-2.20939 3.18603 3.10177 -0.131102 0.585959 -0.799665 93 94 99
-1.67344 2.99773 2.9636 0.190507 0.596745 -0.779489 197 199 205
-1.16743 2.62706 2.69086 -0.284851 0.396848 -0.872566 196 199 205
-0.908262 2.72294 2.57379 -0.628206 0.189168 -0.7547 173 175 180
-0.898751 2.33052 2.12934 -0.401462 0.0655174 -0.913529 140 141 145
-0.529237 2.36494 2.12923 0.456881 -0.293926 -0.839564 41 41 44
-0.317287 2.127 2.062 0.395008 -0.326039 -0.858875 67 68 71
0.817489 2.31483 3.40862 0.465375 0.20118 -0.861947 191 192 193
0.543675 2.52747 3.10263 0.599899 -0.232243 -0.765627 192 195 197
1.3534 2.36147 3.80063 0.481596 0.188003 -0.855991 199 201 202
2.78724 2.77574 5.86066 -0.0177988 -0.926053 -0.376974 142 150 127
-3.5502 6.33094 9.01037 -0.192289 -0.302141 -0.933668 139 150 121
-3.29413 5.92674 8.81003 -0.623913 0.286588 -0.727049 178 174 168
-2.2198 3.62975 3.4315 -0.243008 0.477712 -0.844238 30 31 35
-1.74201 3.66625 3.40564 -0.0600323 0.620836 -0.781638 37 39 44
-1.71835 3.40728 3.1809 -0.0601092 0.632962 -0.771846 95 96 102
-1.58125 3.40482 3.3595 0.153011 0.582044 -0.798632 122 124 130
-1.12225 3.28046 3.22673 0.0151576 0.627587 -0.778399 150 153 158
-0.576176 3.02899 3.03337 0.041384 0.6251 -0.779446 96 98 102
-0.635641 2.79859 2.32231 -0.0954933 0.277336 -0.956016 48 49 54
-0.253222 2.46703 2.2742 0.516076 0.13563 -0.845737 84 87 89
0.0737879 2.48807 2.48779 0.494594 0.150473 -0.855999 169 170 171
0.0927489 2.49792 2.52611 0.500246 0.136187 -0.855106 170 171 172
1.49225 3.24694 4.26352 0.529988 -0.326177 -0.782765 205 207 208
2.25499 3.16034 5.16587 0.392957 -0.622001 -0.677274 160 166 152
2.51085 3.59288 5.55454 0.542673 -0.365547 -0.756228 126 140 115
-3.82207 6.75303 8.94969 -0.710263 -0.405647 -0.575306 82 115 51
-3.0065 6.39072 8.72357 -0.384161 0.162871 -0.908787 179 177 169
-1.9231 4.01422 3.62713 -0.164346 0.517452 -0.839782 86 88 90
-1.48168 3.79474 3.49399 0.497454 0.207178 -0.842387 33 34 39
-0.924024 3.78483 3.8006 0.491426 0.223112 -0.841856 51 54 60
-0.454818 3.39349 3.19194 -0.12198 0.637039 -0.761119 53 55 60
-0.279805 3.34786 2.98613 0.409673 0.241416 -0.879708 116 117 121
-0.439258 3.11431 2.32411 0.259855 0.430077 -0.864586 166 165 168
-0.164853 2.77779 2.22893 -0.0594655 0.453236 -0.889405 175 175 175
0.813261 3.17572 3.41999 0.401438 -0.527775 -0.748533 201 200 199
0.724898 3.15777 3.49728 0.188601 0.354586 -0.915805 201 198 198
2.11189 3.56466 5.00474 -0.202165 0.677579 -0.707118 114 133 93
3.07337 3.87424 5.73912 0.380267 -0.674931 -0.63235 62 93 41
-3.37977 7.39703 8.39911 -0.7144 -0.665049 -0.217586 89 124 57
-0.607203 4.27602 4.19346 0.258863 0.479323 -0.838594 127 129 128
0.176983 4.28569 4.4421 0.24501 0.46565 -0.850377 210 210 213
0.00751677 4.07261 4.18451 -0.0923838 0.520382 -0.848921 177 177 181
1.65287 4.45509 5.49878 0.483996 -0.220756 -0.846767 203 209 211
2.25851 4.44042 5.81558 0.485451 -0.217057 -0.846891 136 149 123
2.10239 4.32304 5.52109 0.480537 -0.28105 -0.830719 140 153 128
2.57707 4.26674 5.79156 0.481651 -0.334958 -0.809824 81 106 61
-2.98096 7.19266 7.33588 -0.511843 0.103614 -0.852808 86 120 57
-2.33298 6.71779 6.77954 -0.439768 0.204306 -0.874564 112 141 88
-2.53024 7.17039 7.25463 -0.44108 0.185711 -0.878043 86 120 58
0.470882 6.60376 7.28281 -0.1248 0.00596233 -0.992164 200 205 201
-2.60571 7.52778 7.53312 -0.455996 0.136695 -0.879421 86 120 58
-2.67273 7.53491 7.11363 -0.230176 -0.345536 -0.909738 84 117 58
-2.6838 7.56946 7.15765 -0.536008 -0.200725 -0.820003 84 117 58
-1.63587 7.52019 7.12419 0.0881136 -0.449046 -0.889153 78 110 57
-0.949856 7.02274 7.29231 0.00220314 0.38622 -0.922404 154 171 146
-0.424694 6.925 7.25498 0.00723037 0.322394 -0.946578 171 185 168
0.399883 7.20571 7.39423 0.00785911 -0.434253 -0.900756 91 117 72
-2.55071 7.76823 7.03917 -0.717429 -0.316759 -0.620451 89 122 66
-2.09908 7.83798 6.73806 -0.635961 -0.565668 -0.524951 79 111 58
-1.08576 7.55537 7.26345 0.200141 -0.447584 -0.871557 75 108 54
-0.554938 7.5311 7.32973 0.239205 -0.302223 -0.922736 78 111 59
-0.116182 7.39752 7.14127 -0.0821195 -0.655969 -0.750307 73 106 54
0.271536 7.99843 7.64257 0.515865 0.0246167 -0.856316 69 100 49
0.742667 7.37113 7.56428 0.133921 0.322277 -0.937124 80 109 60
0.863167 7.3714 6.78237 0.121078 -0.913352 -0.388752 80 110 59
1.70313 7.2342 7.29611 0.115884 -0.504111 -0.855829 80 109 59
-2.34866 7.81822 6.25731 -0.757691 -0.511272 -0.405593 80 112 58
0.00867328 7.82323 6.93571 0.467296 -0.745064 -0.475935 72 105 53
-0.528603 7.20124 5.33061 -0.790112 -0.590493 -0.164444 69 100 48
0.317512 7.54892 6.64261 0.368302 -0.831924 -0.415037 75 106 55
2.23983 7.53425 7.18495 0.128524 -0.944703 -0.30169 77 108 58
-1.01434 7.41081 4.90856 -0.757698 -0.634465 -0.152803 78 109 60
-2.33475 8.15805 5.28168 -0.0829182 -0.990014 0.114 68 100 52
-2.72901 10.0577 5.70014 -0.542051 -0.191934 -0.818134 68 98 50
-0.93529 1.03405 1.96243 -0.517294 -0.12401 -0.846775 35 41 51
0.399859 2.96353 3.00771 -0.13038 0.515168 -0.847114 199 200 201
0.739183 3.73995 3.92042 -0.194587 0.178557 -0.964496 207 205 204
-2.13013 7.55253 7.15311 -0.0854893 -0.526178 -0.846066 79 112 56
-1.41598 7.09601 7.29472 -0.0676923 0.18564 -0.980283 123 145 109
0.908804 6.88456 7.59764 -0.682116 -0.217378 -0.698187 171 184 169
1.47084 6.83146 7.56109 -0.139618 -0.395575 -0.907759 123 145 110
-2.4778 8.71815 6.32287 -0.73158 -0.592573 -0.337118 67 100 48
-1.63367 7.52818 5.30018 -0.479688 -0.855217 -0.196221 65 97 46
0.312679 7.89965 5.92045 0.458798 -0.747161 -0.48089 74 105 54
-2.25992 8.68052 5.57861 -0.607527 -0.19326 -0.770429 64 96 44
-1.64412 7.74401 4.60969 -0.340696 -0.921554 -0.186187 69 99 49
-1.66124 8.00454 3.93958 -0.0302474 -0.997741 -0.0599923 71 102 52
-1.95528 7.06875 7.17047 -0.187343 -0.0829437 -0.978786 92 123 70
-4.75514 -3.65218 11.7349 -0.702198 0.550426 -0.451608 86 86 58
-4.41572 -2.83711 9.40716 -0.760103 0.439726 -0.478418 75 75 53
-3.53152 -1.59982 8.25331 -0.834388 -0.154338 -0.529127 64 68 50
-4.52901 -0.362953 9.14556 -0.458488 0.748527 -0.479058 75 102 48
-4.0725 -0.409653 8.45654 -0.457804 0.759836 -0.46159 100 118 68
-3.08048 -0.672878 7.82699 -0.784558 -0.365559 -0.500834 40 101 141
-3.32367 -0.0345964 8.11125 -0.601192 0.661259 -0.448669 160 178 179
-2.83492 -0.269204 7.40469 -0.706971 -0.551896 -0.44227 143 167 187
-3.00352 0.0295649 7.16375 -0.767868 -0.475113 -0.429705 210 213 214
-2.77019 0.0536612 5.97627 -0.857728 -0.327728 -0.396102 231 232 231
-4.2007 1.40147 8.93202 -0.680186 -0.581157 -0.44677 80 100 64
-4.07929 1.25015 8.82352 -0.730899 -0.4679 -0.496846 77 94 59
-3.58541 1.03506 7.53866 -0.782864 0.394386 -0.481231 220 224 220
-3.10479 0.459634 5.39457 -0.70102 -0.581073 -0.413431 236 238 241
-3.75921 1.48383 8.20301 -0.340865 -0.657739 -0.671707 231 238 233
-3.43656 1.14773 7.49151 -0.89474 -0.104283 -0.434241 226 228 230
-2.56282 0.673701 4.80206 -0.409653 -0.810057 -0.419513 201 204 210
-4.71904 2.4392 8.61284 -0.814751 0.0801296 -0.574248 58 127 163
-3.81197 1.44855 5.07643 -0.82748 0.270406 -0.492095 236 239 242
-3.74957 1.92738 7.82118 -0.266245 -0.76196 -0.590365 246 252 253
-3.332 1.61878 5.09854 -0.770227 0.411708 -0.48708 239 241 244
-3.11253 1.13484 4.05847 -0.716276 -0.594826 -0.364871 206 210 214
-1.64532 0.820153 3.44825 -0.770609 -0.565251 -0.294368 57 61 70
-5.27282 2.88098 8.91911 -0.345484 -0.788873 -0.508251 189 193 183
-4.68835 2.88781 8.38289 -0.797454 0.215546 -0.563566 21 107 173
-4.24514 2.73866 7.7561 -0.870458 -0.0614159 -0.488396 127 174 210
-3.68843 1.93227 4.54075 -0.769286 0.374044 -0.517967 225 227 231
-3.76826 2.27343 6.89185 -0.848966 -0.149585 -0.506834 246 248 251
-3.01478 1.25459 2.83018 -0.824998 -0.455467 -0.334558 100 105 110
-4.92986 3.69562 9.07547 -0.605321 0.472462 -0.640598 88 119 97
-5.09614 3.23158 8.40751 -0.162743 -0.349134 -0.922833 116 143 147
-4.12661 3.18944 7.42982 -0.831574 -0.0105799 -0.555314 135 161 177
-3.88428 2.86136 6.72432 -0.875179 -0.0754204 -0.477885 220 229 233
-3.59083 2.51329 5.79384 -0.857019 -0.0765599 -0.509566 213 216 221
-3.70435 2.50202 5.71357 -0.891843 -0.107036 -0.439498 219 223 228
-3.52304 2.38044 4.1481 -0.736219 0.411135 -0.53754 182 183 187
-3.64226 3.0902 5.79514 -0.854754 0.147393 -0.497665 174 180 176
-3.3786 2.81581 5.29741 -0.846669 0.21037 -0.488771 168 172 174
-3.20602 2.47994 3.62814 -0.745079 0.413619 -0.523237 59 61 65
-3.12066 2.11526 3.06245 -0.678121 0.510877 -0.528352 45 47 52
-4.47 4.62007 8.44525 -0.120642 0.653174 -0.747535 142 145 122
-4.2767 3.94899 8.01298 -0.746736 0.306197 -0.590448 58 77 67
-3.6342 3.59707 7.09577 -0.891039 -0.0784077 -0.447104 144 150 139
-3.87401 4.02643 7.26605 -0.68968 0.323033 -0.648068 123 127 105
-3.38359 3.33857 5.19257 -0.880815 0.0823671 -0.466242 191 193 192
-3.27163 2.87034 4.14595 -0.750063 0.385651 -0.537288 118 120 123
-3.06609 2.45671 3.05085 -0.537812 0.603549 -0.588631 31 34 38
-4.72992 5.05673 8.52942 -0.260404 0.403303 -0.877232 87 107 64
-3.99595 4.54278 8.04445 -0.623037 0.449389 -0.640214 168 167 151
-3.41558 4.16352 6.85015 -0.64112 0.460663 -0.613804 194 195 185
-3.02369 3.35898 4.11605 -0.74283 0.386929 -0.546343 126 126 126
-2.95244 3.02451 3.65688 -0.770664 0.369544 -0.519147 34 35 38
-3.60548 5.12633 8.25119 -0.639679 0.42767 -0.638678 177 173 169
-3.12792 3.80282 4.6857 -0.905081 -0.0041066 -0.42522 200 201 198
-3.22789 3.98778 5.27956 -0.903652 -0.218426 -0.36838 201 201 197
-1.13799 2.37793 2.45804 -0.468386 0.392693 -0.791459 185 187 192
-4.04005 6.36858 9.20727 -0.845537 -0.214014 -0.489147 84 115 56
-2.83731 5.69503 7.98081 -0.538181 0.457171 -0.708065 202 202 196
-2.79714 3.74705 4.03174 -0.613739 0.35248 -0.706458 162 164 161
-2.63431 3.70138 3.76996 -0.638209 0.418862 -0.645945 111 112 111
-2.54619 6.19482 8.03015 -0.410277 0.513867 -0.753401 205 206 201
-2.43613 5.52325 6.99748 -0.642669 0.437428 -0.628994 209 210 206
-2.55918 4.16165 4.0351 -0.454196 0.57155 -0.683401 190 192 190
-2.36787 4.03079 3.802 -0.460194 0.541122 -0.703852 159 160 160
-4.15384 7.27923 8.86314 -0.731036 -0.610452 -0.304853 85 120 52
-2.7526 6.86578 8.65489 -0.392573 -0.00455238 -0.91971 144 157 125
-1.91055 5.6979 6.83267 0.0503631 0.575 -0.816602 211 213 209
-1.79065 4.40934 3.56297 -0.0841054 0.57379 -0.814673 175 177 168
-1.11195 4.54805 4.24379 -0.0637467 0.58313 -0.809874 154 156 146
0.665346 3.67337 3.74711 -0.238771 0.284273 -0.928535 204 197 193
-2.75147 6.67797 7.08156 -0.452909 0.186534 -0.871825 110 140 82
-1.25276 6.0314 6.94502 -0.0818121 0.573627 -0.815021 215 217 212
-0.508829 6.52603 7.26832 -0.251377 0.556979 -0.791571 222 225 219
-0.205866 5.16165 5.56381 -0.277011 0.623666 -0.730962 181 183 175
0.740115 6.12717 7.24051 0.249644 0.442465 -0.861338 217 218 215
1.20789 5.27302 6.39683 -0.155836 0.63 -0.760799 234 232 235
-0.185912 6.51216 7.08279 -0.272447 0.586937 -0.762415 224 226 222
