ply
format ascii 1.0
element vertex 742
property float x
property float y
property float z
property float nx
property float ny
property float nz
property uchar diffuse_red
property uchar diffuse_green
property uchar diffuse_blue
end_header
5.26837 -2.29737 8.60796 0.218468 -0.396673 -0.891584 15 26 29
5.52435 -2.24743 8.1762 -0.365701 0.891658 -0.266849 39 45 42
5.64969 -2.22432 8.07027 0.595356 0.485794 -0.639965 52 61 56
5.69349 -2.24489 8.13799 0.627651 0.181698 -0.756994 47 58 53
6.34779 -2.55963 9.00476 -0.607612 0.747039 -0.269705 45 52 52
4.14363 -1.94744 7.96551 -0.0609657 -0.398181 -0.915279 56 65 41
4.1081 -1.93701 7.93215 0.261544 -0.252679 -0.93153 48 56 33
5.15906 -2.24395 8.66161 0.502897 0.71347 -0.487909 24 39 27
5.20226 -2.2821 8.64607 -0.0527756 0.598903 -0.799081 16 30 30
5.4492 -2.20771 8.18405 -0.352091 0.887594 -0.296999 37 45 40
5.6449 -2.22705 8.20836 -0.466302 0.836469 -0.287894 35 46 39
5.69259 -2.22798 8.21708 -0.477323 0.828675 -0.292336 35 50 42
5.73956 -2.23845 8.25564 -0.463544 0.841121 -0.278643 29 43 36
6.41081 -2.55933 9.14527 -0.640711 0.718557 -0.270489 35 45 39
6.41081 -2.55933 9.14527 -0.640711 0.718557 -0.270489 35 45 39
6.45565 -2.58377 9.19431 -0.662551 0.697713 -0.272441 37 48 42
6.45565 -2.58377 9.19431 -0.662551 0.697713 -0.272441 37 48 42
6.45565 -2.58377 9.19431 -0.662551 0.697713 -0.272441 37 48 42
4.2148 -1.91797 7.97046 -0.138803 0.0146955 -0.990211 86 100 51
4.25086 -1.95103 7.96578 0.173386 -0.477575 -0.861313 56 67 37
4.24247 -1.91943 7.97942 -0.649269 0.0772612 -0.756625 97 114 60
4.29143 -1.94107 7.93787 -0.165843 0.234187 -0.957942 66 79 43
4.31418 -1.93033 7.88953 -0.503439 0.710587 -0.491543 61 74 40
5.35791 -2.25227 8.74114 0.42994 0.696468 -0.57453 39 55 30
6.36289 -2.92994 11.029 -0.657682 0.68645 -0.310227 34 49 28
5.74474 -2.24112 8.42346 -0.716732 0.58712 -0.376278 29 45 30
5.76354 -2.21844 8.31908 -0.552372 0.775802 -0.304986 28 45 31
5.76868 -2.21416 8.29151 -0.513757 0.800985 -0.30737 31 47 35
5.82486 -2.22684 8.31089 -0.635703 0.695277 -0.335368 30 47 36
6.47241 -2.5484 9.2654 -0.687941 0.667807 -0.284203 33 47 37
6.47241 -2.5484 9.2654 -0.687941 0.667807 -0.284203 33 47 37
6.52301 -2.56038 9.30545 -0.664867 0.695864 -0.271524 32 48 36
6.54847 -2.52196 9.14395 -0.773974 0.553024 -0.308431 34 50 37
4.29986 -1.90054 7.9091 -0.635193 0.474601 -0.609331 100 120 62
4.29964 -1.8813 7.91547 -0.675131 0.296062 -0.675681 109 133 63
4.34634 -1.8954 7.8657 -0.566411 0.419102 -0.7096 92 111 56
5.01347 -2.19183 8.74081 0.586329 0.282752 -0.759124 78 108 53
5.36245 -2.22912 8.73165 0.186031 0.485931 -0.85397 53 71 35
6.40184 -2.89883 10.9866 -0.856657 0.0805592 -0.509558 36 48 27
4.27681 -1.88259 8.00114 -0.390385 0.812539 -0.432873 110 142 58
4.54212 -2.05875 8.5909 0.136918 0.599333 -0.788704 160 182 150
5.34113 -2.18565 8.72534 -0.0192017 -0.526359 -0.850046 101 125 67
5.38955 -2.205 8.79523 0.554718 0.351545 -0.754124 105 126 70
6.46285 -2.79973 10.8404 -0.633267 -0.00950709 -0.773875 72 85 47
6.03719 -2.36622 9.13951 -0.690205 0.633899 -0.348984 48 64 33
5.84444 -2.23629 8.5532 -0.684179 0.640712 -0.348405 43 60 33
5.85886 -2.21396 8.44124 -0.634067 0.696857 -0.335186 37 55 33
6.12813 -2.28505 8.67771 -0.744913 0.612447 -0.264601 25 41 26
6.55455 -2.45129 9.10348 -0.706823 0.647741 -0.28431 30 49 33
6.55455 -2.45129 9.10348 -0.706823 0.647741 -0.28431 30 49 33
6.55455 -2.45129 9.10348 -0.706823 0.647741 -0.28431 30 49 33
6.59203 -2.43768 9.04677 -0.734838 0.61344 -0.289317 28 44 28
6.69328 -2.43275 9.0113 -0.776198 0.591815 -0.217419 26 44 27
3.94757 -1.88124 8.48284 -0.512214 0.672689 -0.533972 110 150 58
3.95009 -1.88164 8.48221 -0.509823 0.675956 -0.532131 110 150 58
5.18699 -2.12102 8.74563 0.60492 0.558393 -0.567687 107 147 65
5.30607 -2.13372 8.73065 0.614329 0.523566 -0.590321 121 152 80
5.32039 -2.13856 8.69801 0.244033 0.384988 -0.890074 122 151 82
6.41043 -2.78095 10.9205 -0.769891 -0.257575 -0.583887 107 122 79
6.44994 -2.76112 10.824 -0.78511 0.512604 -0.347619 85 102 56
6.60803 -2.71488 10.6434 -0.652818 0.696647 -0.297508 97 118 64
6.60989 -2.71092 10.617 -0.696307 0.648283 -0.308036 97 116 64
5.88808 -2.18927 8.55247 -0.68901 0.635033 -0.349284 58 78 39
5.87112 -2.17965 8.49723 -0.647552 0.684825 -0.334204 55 74 37
5.94237 -2.2042 8.56237 -0.637844 0.725614 -0.258145 47 64 32
5.99057 -2.20208 8.53673 -0.414336 0.617015 -0.669043 43 61 35
5.97064 -2.19059 8.49542 -0.341438 0.819704 -0.459898 45 63 36
6.16803 -2.27519 8.8409 -0.743192 0.357495 -0.565564 48 62 36
6.19934 -2.24128 8.55992 -0.760822 0.546516 -0.349958 33 49 30
6.20122 -2.23364 8.53739 -0.758816 0.543031 -0.359607 33 50 31
6.53214 -2.42119 9.1976 -0.753678 0.585416 -0.29876 28 44 25
6.2546 -2.23054 8.59516 -0.753191 0.556488 -0.350749 33 51 30
6.565 -2.40231 9.12788 -0.73746 0.605923 -0.298346 28 46 25
6.60322 -2.39902 9.10577 -0.714383 0.63881 -0.28562 31 48 27
6.60225 -2.38803 9.07038 -0.750368 0.589809 -0.298451 31 48 27
6.64065 -2.38548 9.05067 -0.723375 0.629352 -0.283981 35 52 31
5.07196 -2.08083 8.74833 0.378144 0.594797 -0.709382 108 151 62
5.14705 -2.08944 8.78346 -0.142655 0.797534 -0.586165 113 154 73
5.22437 -2.11635 8.77159 0.580966 0.59511 -0.555268 107 144 67
5.26366 -2.10183 8.76882 0.0950477 0.837077 -0.538766 98 131 61
5.29236 -2.10945 8.73034 0.580277 0.586556 -0.565005 108 140 69
6.62948 -2.69923 10.6323 -0.691883 0.653001 -0.308039 112 136 73
6.15658 -2.23034 8.85373 -0.813699 0.412012 -0.410049 95 110 68
6.20238 -2.19872 8.59136 -0.742619 0.562274 -0.36382 48 62 37
6.23879 -2.22027 8.66057 -0.736564 0.580196 -0.34763 48 64 38
6.20238 -2.19872 8.59136 -0.742619 0.562274 -0.36382 48 62 37
6.53143 -2.3532 9.20138 -0.545989 0.790895 -0.276369 52 67 36
6.57699 -2.37722 9.23234 -0.518576 0.789749 -0.327683 46 62 33
6.59395 -2.37832 9.10783 -0.50483 0.826974 -0.247508 34 51 27
6.58986 -2.35668 9.03676 -0.36136 0.904218 -0.227615 35 52 28
5.04737 -2.04331 8.75322 0.252957 0.241331 -0.936895 97 135 56
5.12909 -2.04696 8.82748 -0.254795 0.645703 -0.719825 120 151 86
5.22182 -2.0888 8.87388 0.153014 0.682077 -0.715093 105 134 69
5.36403 -2.09918 8.7838 -0.0666125 0.613097 -0.787194 105 134 69
5.4584 -2.13624 8.89988 -0.15827 0.327545 -0.931485 108 135 69
6.11877 -2.24207 9.08616 -0.761694 0.58122 -0.286367 118 134 87
6.10217 -2.25917 9.1297 -0.765894 0.573591 -0.290517 106 122 74
6.14542 -2.25114 9.09201 -0.714827 0.606454 -0.348189 120 137 89
6.1882 -2.24343 9.06712 -0.68933 0.634944 -0.348812 103 120 72
6.19069 -2.17245 8.65834 -0.775767 0.497521 -0.388147 92 105 65
6.19069 -2.17245 8.65834 -0.775767 0.497521 -0.388147 92 105 65
6.22477 -2.15721 8.6075 -0.755915 0.53913 -0.371392 86 99 60
6.24005 -2.14935 8.5926 -0.725418 0.589568 -0.355215 85 99 59
6.21991 -2.15355 8.59349 -0.732532 0.577904 -0.359754 86 100 60
6.22159 -2.15261 8.5892 -0.73088 0.584393 -0.352562 88 101 61
6.23812 -2.15317 8.60545 -0.693647 0.628404 -0.352083 86 99 59
6.24128 -2.14753 8.58665 -0.690669 0.63825 -0.340021 85 99 58
6.65154 -2.34781 9.1133 -0.711616 0.636943 -0.296491 57 76 38
6.65397 -2.30703 8.96054 -0.0427824 0.955868 -0.290665 56 75 38
5.17337 -2.04674 8.83829 0.238275 0.343072 -0.908585 97 126 64
5.42292 -2.08435 8.90167 -0.463471 0.820069 -0.335681 88 110 56
5.66984 -2.04935 8.64205 0.149739 0.464903 -0.872607 111 134 77
5.84583 -2.08522 8.58808 -0.725399 0.566683 -0.390727 117 137 89
5.83588 -2.08777 8.61409 -0.68896 0.61869 -0.377566 117 137 89
6.1346 -2.19698 9.09065 -0.5234 0.714044 -0.464966 107 126 77
6.70831 -2.33385 9.24585 -0.736208 0.607494 -0.298243 97 123 63
6.66164 -2.30931 9.17225 -0.731566 0.610833 -0.30281 101 126 65
6.7071 -2.3285 9.23128 -0.765941 0.563367 -0.309761 98 124 64
6.70831 -2.33385 9.24585 -0.736208 0.607494 -0.298243 97 123 63
6.70806 -2.33247 9.24482 -0.745466 0.594142 -0.302118 98 124 64
5.19103 -2.02048 8.89888 -0.262348 0.912351 -0.314308 88 115 56
5.25607 -2.02153 8.87546 -0.616007 0.669445 -0.415186 87 114 55
5.36057 -2.0431 8.93311 -0.341415 0.883311 -0.321243 94 114 63
5.42288 -2.05316 8.95827 -0.487995 0.793352 -0.363942 94 113 66
5.48011 -2.04493 8.96328 0.13798 0.836231 -0.530735 98 117 66
5.66592 -2.01458 8.68904 0.0213831 0.894517 -0.446522 115 138 81
5.8448 -2.0629 8.66936 -0.197812 0.876214 -0.439454 120 139 91
5.87893 -2.07284 8.71904 -0.638112 0.680654 -0.359893 112 134 85
5.87408 -2.06892 8.71515 -0.662342 0.654737 -0.364175 111 133 84
6.1772 -2.18842 9.05135 -0.709877 0.481292 -0.51423 90 112 59
6.22301 -2.20118 9.08802 -0.663928 0.463021 -0.587207 84 106 52
6.22286 -2.0862 8.53897 -0.732133 0.576496 -0.362813 113 132 78
6.25894 -2.10425 8.59435 -0.736612 0.571986 -0.360881 109 127 74
6.22526 -2.08253 8.52596 -0.729444 0.58611 -0.352685 112 131 76
6.22526 -2.08253 8.52596 -0.729444 0.58611 -0.352685 112 131 76
6.24509 -2.07599 8.51802 -0.684963 0.647723 -0.333587 113 132 76
6.28289 -2.10273 8.59533 -0.703235 0.627279 -0.334637 113 130 76
6.2453 -2.07849 8.52613 -0.717498 0.599771 -0.354218 113 132 77
6.28223 -2.10172 8.59692 -0.736763 0.573668 -0.357889 113 132 78
6.28289 -2.10273 8.59533 -0.703235 0.627279 -0.334637 113 130 76
6.71778 -2.29701 9.31989 -0.772546 0.550957 -0.315624 109 138 67
4.71229 -1.91259 8.9141 -0.00221781 -0.0732053 -0.997314 103 144 56
4.75978 -1.91129 8.92902 0.38898 -0.154292 -0.908234 103 141 60
5.36057 -2.01277 8.9921 -0.303349 0.850254 -0.430171 109 134 69
5.42708 -2.02227 8.96607 0.167118 0.783641 -0.598313 104 125 71
5.47982 -2.00482 8.99056 -0.00722068 0.829916 -0.557841 119 141 78
5.60673 -1.99877 8.72285 0.0111302 0.706763 -0.707363 116 134 83
6.40575 -2.08157 8.73804 -0.625748 0.720356 -0.299211 105 137 60
6.44519 -2.09858 8.7735 -0.705146 0.635297 -0.314908 103 134 58
4.54029 -1.85482 8.93232 -0.643068 0.630246 -0.435034 98 137 52
4.59765 -1.85657 8.97423 0.327408 0.454225 -0.828543 117 151 68
4.63802 -1.84924 8.95835 -0.241332 0.65421 -0.716776 117 147 70
5.33918 -1.94644 8.99254 -0.455752 0.000668917 -0.890107 103 130 56
5.37691 -1.96771 8.99704 0.63863 0.00281406 -0.769509 110 139 64
5.42296 -1.97179 9.02324 0.19303 0.431512 -0.881213 130 160 83
5.73354 -1.97802 8.84119 0.176879 0.779837 -0.600473 120 152 71
5.78933 -2.00063 8.85009 -0.0992783 0.860914 -0.49897 113 144 65
5.84497 -2.00979 8.81151 -0.308787 0.905893 -0.289841 105 135 60
5.93207 -2.01662 8.8902 0.0460118 0.937287 -0.345509 115 147 63
5.9077 -2.01906 8.83249 0.117479 0.920262 -0.373252 111 141 65
5.3224 -1.90878 9.01735 -0.608884 0.663773 -0.434357 110 134 62
5.36761 -1.91117 9.00681 -0.239128 0.615284 -0.751162 103 129 55
5.53067 -1.97267 9.08533 0.311534 0.0474436 -0.94905 106 135 59
5.65533 -1.96669 9.02469 -0.599366 0.672841 -0.433643 113 143 64
5.71541 -1.95949 8.94563 -0.119928 0.950986 -0.285032 115 150 60
5.79313 -1.96776 8.91181 0.392885 0.765754 -0.509178 118 152 61
5.86182 -1.99554 8.91422 0.049888 0.935109 -0.350831 119 151 64
5.84398 -1.98368 8.89013 0.352805 0.797413 -0.489552 120 152 64
6.40495 -2.11863 9.18143 -0.569958 0.763714 -0.303132 101 133 54
6.43429 -2.07415 9.05612 -0.855614 0.221946 -0.467616 114 148 63
6.39707 -2.04651 8.77996 -0.712646 0.420077 -0.561846 112 146 60
6.45653 -2.03502 8.73367 -0.616208 0.730395 -0.294636 116 151 64
6.49927 -2.05221 8.77112 -0.618375 0.730361 -0.290146 113 148 62
2.99593 -1.37063 7.93006 0.285307 0.642355 -0.711323 93 123 54
3.04327 -1.36574 7.87415 0.764567 0.478397 -0.431942 103 133 61
5.21835 -1.85595 9.05138 -0.535875 0.771729 -0.342451 108 128 70
5.27445 -1.8769 9.03938 -0.560834 0.42696 -0.709345 105 125 62
5.31957 -1.88109 9.0334 -0.737081 -0.310258 -0.600377 106 126 62
5.40655 -1.88383 9.00624 -0.442404 0.36424 -0.819517 111 134 66
5.50748 -1.92826 9.0723 0.590536 0.194838 -0.783138 112 139 66
5.47053 -1.91464 9.03271 0.663393 -0.00516283 -0.748253 118 143 71
5.5521 -1.93305 9.1066 0.31776 0.0505908 -0.946821 118 145 69
5.60069 -1.92468 9.11637 0.245272 -0.0484489 -0.968243 130 156 79
5.71339 -1.92945 9.01115 -0.376702 0.587638 -0.716085 124 160 65
6.47737 -2.08363 9.26435 -0.557034 0.777557 -0.29175 129 164 71
6.46452 -2.08232 9.23569 -0.505116 0.777837 -0.373936 112 145 61
6.4165 -2.03075 9.05133 -0.683178 0.65057 -0.331703 115 149 64
2.94393 -1.28236 7.63244 0.556351 0.669636 -0.491997 96 132 54
2.97689 -1.29753 7.75172 0.851826 0.236473 -0.467411 107 145 54
3.01115 -1.33307 7.87178 0.847828 0.246921 -0.469273 103 139 53
5.2236 -1.84235 9.07816 -0.565332 0.746811 -0.350246 113 131 74
5.30463 -1.83623 9.03724 -0.677498 -0.293669 -0.674355 115 132 76
5.33668 -1.8346 8.97896 -0.429417 -0.372245 -0.822821 119 137 78
5.48169 -1.86426 9.01676 0.67922 0.188113 -0.709418 125 145 80
5.52892 -1.87637 9.05764 0.654932 0.319661 -0.684749 126 146 80
5.5922 -1.87777 9.11286 0.516906 -0.347707 -0.782246 143 163 96
5.71548 -1.88847 9.03182 -0.52335 0.770662 -0.363572 128 160 69
5.76732 -1.9072 9.05021 -0.209794 0.846453 -0.489391 132 167 73
6.43662 -2.07222 9.40059 -0.836641 0.383007 -0.391582 125 157 75
6.47148 -2.05104 9.34779 -0.839247 0.376618 -0.392202 127 161 77
6.45052 -2.01961 9.07574 -0.743337 0.566535 -0.355651 123 157 70
6.6443 -2.05223 9.23206 -0.22925 0.822206 -0.520981 130 164 71
6.57991 -1.96607 8.64831 -0.830125 0.429456 -0.355612 125 162 65
3.0134 -1.3008 7.81942 0.768152 0.472391 -0.432191 109 148 49
4.92528 -1.7806 9.19194 -0.698829 0.465121 -0.543415 120 135 73
5.13751 -1.79804 9.1413 -0.446911 0.797816 -0.404672 134 149 85
5.17448 -1.79807 9.05947 -0.497186 0.752223 -0.432396 127 144 81
5.19457 -1.78648 9.08413 -0.48564 0.771697 -0.410654 120 136 72
5.48079 -1.80694 8.99131 0.670174 0.277106 -0.688534 122 136 80
5.56999 -1.8218 9.0671 0.661063 0.0741192 -0.746661 135 150 91
5.82149 -1.88491 9.08966 0.316046 0.819299 -0.478398 117 146 63
5.86647 -1.90543 9.16977 0.538825 0.580329 -0.610644 119 146 66
5.99495 -1.90508 9.15565 -0.270029 0.414462 -0.869083 118 134 71
6.11044 -1.90228 9.11335 -0.703909 0.602581 -0.376044 123 141 74
6.69256 -2.02911 9.22608 0.168514 0.700073 -0.693902 127 159 69
6.69833 -2.02077 9.25288 -0.333075 0.744119 -0.579093 125 157 68
4.8617 -1.72772 9.22334 -0.498091 0.740586 -0.451041 107 121 60
4.91144 -1.7328 9.17644 -0.530882 0.316706 -0.786042 113 126 64
4.94435 -1.71708 9.18931 -0.700846 0.0368839 -0.712358 122 133 71
4.9852 -1.72744 9.15545 -0.317922 0.548834 -0.773115 129 140 76
5.04432 -1.73978 9.16971 -0.33221 0.654125 -0.679527 137 147 82
5.19513 -1.75354 9.14371 -0.101768 0.764325 -0.636751 123 136 70
5.60848 -1.80757 9.04649 0.522453 -0.345489 -0.779538 129 144 79
5.86797 -1.86634 9.20715 0.415719 0.220138 -0.88245 105 123 61
4.79315 -1.66232 9.15623 -0.0192054 0.938397 -0.345025 98 114 51
4.82278 -1.67297 9.16957 0.131726 0.914648 -0.382186 107 122 57
4.82251 -1.67319 9.17049 0.138529 0.912651 -0.38455 109 124 58
4.88973 -1.70488 9.1726 -0.121548 0.593997 -0.795232 115 128 67
4.91096 -1.69006 9.23467 -0.43243 0.733413 -0.524509 117 130 68
4.98584 -1.68454 9.1708 0.361874 0.491144 -0.792354 140 151 89
5.19452 -1.72204 9.21443 0.384879 0.787126 -0.481976 134 144 81
4.90512 -1.66611 9.23858 -0.58088 0.623779 -0.522951 123 135 72
4.94635 -1.66525 9.20627 -0.611709 0.526581 -0.590359 132 144 82
5.65174 -1.73311 8.97166 -0.046705 -0.731244 -0.680516 129 140 77
4.9081 -1.62588 9.29631 -0.583714 0.649147 -0.487735 124 135 72
5.1173 -1.6663 9.31936 -0.481599 0.752321 -0.449528 122 131 71
5.94233 -1.77853 9.47923 -0.715586 0.554141 -0.425282 157 165 108
6.00424 -1.76551 9.42284 -0.372603 0.858501 -0.35234 128 135 77
5.99707 -1.79661 9.36231 -0.349978 0.804419 -0.480027 121 128 74
6.32888 -1.82122 9.51094 -0.00980809 0.804524 -0.593839 151 154 100
6.48786 -1.8815 9.53571 -0.628046 -0.0162829 -0.778006 112 114 66
5.20876 -1.64534 9.41312 -0.611863 0.691209 -0.384516 118 125 68
6.00416 -1.73573 9.49797 -0.401872 0.848079 -0.345341 129 137 77
5.95293 -1.7593 9.44418 -0.68144 0.604792 -0.412148 151 159 105
6.49546 -1.80523 9.51244 -0.766809 0.572115 -0.291014 126 127 78
6.00705 -1.7073 9.58335 -0.818718 0.445189 -0.362639 109 119 65
6.01962 -1.71475 9.44916 -0.505431 0.782857 -0.36287 127 135 73
6.32779 -1.7823 9.55966 -0.00963494 0.807247 -0.590135 141 147 89
6.38063 -1.76077 9.57519 0.0407006 0.875548 -0.481414 154 158 101
6.50868 -1.79714 9.48899 -0.793379 0.533396 -0.293324 127 128 78
6.66315 -1.80989 9.55429 -0.356985 0.819029 -0.449169 128 129 80
6.73007 -1.81301 9.53897 0.087516 0.857033 -0.507776 136 135 88
6.87483 -1.8278 9.58839 -0.246612 0.835542 -0.490971 143 141 92
6.94013 -1.83574 9.56504 0.232838 0.830235 -0.506454 127 127 74
7.02671 -1.88065 9.5933 0.528405 0.440421 -0.725822 111 114 61
6.1488 -1.70265 9.62746 0.30297 0.623317 -0.720892 114 125 66
6.32836 -1.74145 9.60365 0.472278 0.632615 -0.613801 130 136 74
6.17817 -1.64083 9.19309 -0.31154 -0.686281 -0.657238 134 141 74
6.45411 -1.75021 9.63639 -0.0454903 0.527368 -0.848418 136 138 80
6.67799 -1.76055 9.65893 0.092419 0.702554 -0.705604 122 127 74
6.67839 -1.77164 9.6372 -0.712095 0.612588 -0.343011 122 126 74
6.86028 -1.78405 9.60999 -0.636196 0.728546 -0.253921 137 144 90
6.14487 -1.66113 9.6627 -0.285057 0.75012 -0.59671 117 129 69
6.68136 -1.71695 9.69722 -0.567667 0.651801 -0.502901 128 138 77
6.74868 -1.73338 9.7229 -0.528395 0.652397 -0.543302 139 150 89
6.80807 -1.74439 9.6967 -0.210425 0.795591 -0.568116 131 144 82
6.87691 -1.76031 9.69603 -0.566479 0.615967 -0.547437 135 148 85
6.16241 -1.61792 9.73641 -0.625269 0.711097 -0.321528 106 115 61
6.18434 -1.61793 9.7726 -0.630882 0.67017 -0.390972 111 123 67
6.22335 -1.61692 9.72037 -0.668415 0.672459 -0.317836 103 112 58
6.76084 -1.69408 9.78672 0.0158283 0.645453 -0.763636 124 138 69
6.79814 -1.72374 9.83655 -0.144028 -0.739793 -0.657239 140 151 84
6.81308 -1.70815 9.76517 -0.574721 0.607801 -0.547972 134 147 79
6.90591 -1.7188 9.77761 -0.221694 0.930706 -0.290926 113 134 59
6.90313 -1.7174 9.76999 -0.22194 0.93035 -0.291875 113 134 59
7.02656 -1.73289 9.8406 -0.285217 0.909039 -0.303809 139 163 80
7.02798 -1.7636 9.75456 0.0289305 0.913483 -0.405847 140 158 84
6.1871 -1.57813 9.83422 -0.616664 0.717049 -0.324909 111 123 63
6.31675 -1.62309 9.76864 -0.649675 0.657121 -0.38225 120 131 72
6.26821 -1.60419 9.65394 -0.645556 0.696875 -0.312446 110 121 62
6.23591 -1.57255 9.78308 -0.612278 0.630332 -0.477281 119 134 72
6.35126 -1.5831 9.85637 0.0566942 0.755091 -0.653165 136 151 87
7.25815 -1.71857 9.89392 -0.648962 0.679916 -0.341412 112 140 55
6.22114 -1.54447 9.94501 -0.65996 0.676316 -0.327184 119 138 63
6.25053 -1.5236 9.82925 -0.607629 0.724067 -0.326365 134 154 78
6.35362 -1.5448 9.9265 -0.669367 0.643604 -0.371109 130 150 71
6.28261 -1.48693 9.95024 -0.658782 0.676907 -0.328336 132 158 70
6.23302 -1.43272 10.6122 -0.782707 0.437451 -0.442726 136 162 62
6.2613 -1.36017 10.4196 -0.567278 0.41425 -0.711753 149 177 69
6.21984 -1.39776 10.3751 -0.69812 0.576165 -0.425045 136 165 63
6.26402 -1.36151 10.4295 -0.334353 0.666425 -0.666397 149 177 69
6.28323 -1.38233 10.141 0.327687 0.765578 -0.553635 123 147 50
6.54435 -1.3757 10.1607 0.137165 0.866202 -0.4805 126 155 53
6.28325 -1.34263 10.2107 -0.250115 0.841092 -0.479591 134 161 59
6.37219 -1.31447 10.2838 -0.178113 0.914709 -0.362743 146 172 67
6.37221 -1.35161 10.1905 -0.22128 0.892526 -0.392979 134 160 58
6.45064 -1.35478 10.1462 -0.100787 0.91886 -0.381494 139 167 64
6.66684 -1.3809 10.1783 -0.147047 0.920263 -0.362621 124 150 58
6.77466 -1.39654 10.1908 0.455354 0.601409 -0.656475 124 148 63
6.76454 -1.39225 10.1606 0.53202 0.470921 -0.703696 123 148 63
6.97294 -1.43695 10.5144 -0.917111 -0.126929 -0.377884 115 134 61
7.04807 -1.44227 10.3986 -0.7412 0.405171 -0.535219 121 137 74
7.0527 -1.42191 10.4183 -0.794974 0.34259 -0.500648 109 124 63
7.10261 -1.42514 10.3527 -0.298236 0.760553 -0.576728 110 125 64
7.18127 -1.43961 10.3657 -0.220396 0.573909 -0.788704 107 121 58
6.37298 -1.27878 10.344 0.247653 0.811128 -0.529849 137 164 60
6.4443 -1.28436 10.3073 0.207161 0.831737 -0.51507 129 157 52
6.45208 -1.31944 10.2429 0.104878 0.863631 -0.493094 149 177 71
6.51793 -1.31998 10.1965 -0.567299 0.735346 -0.370727 141 169 63
6.65806 -1.3431 10.249 -0.754327 0.312768 -0.577206 120 148 49
6.70927 -1.32998 10.2341 -0.270126 0.829866 -0.488215 124 148 58
6.97564 -1.40243 10.5196 -0.857997 -0.193408 -0.475851 121 140 72
7.06603 -1.38996 10.4108 -0.637485 0.199533 -0.744177 111 126 65
7.11056 -1.3698 10.4159 0.389189 0.531948 -0.752039 147 162 101
7.1656 -1.41218 10.4093 0.374244 0.504101 -0.778347 118 134 70
7.22681 -1.40748 10.3624 -0.208004 0.901842 -0.378701 130 145 77
6.29232 -1.24225 10.3551 0.302481 0.776182 -0.553214 139 164 59
6.36881 -1.2676 10.3288 0.0421519 0.873871 -0.484327 143 170 66
6.45315 -1.24471 10.4068 -0.118898 0.842305 -0.525724 124 149 53
6.53526 -1.27375 10.2686 -0.54287 0.740398 -0.396362 135 163 61
6.61406 -1.27857 10.3779 -0.296357 0.855399 -0.424813 135 161 62
6.6 -1.2882 10.3147 -0.459097 0.648214 -0.607493 138 166 63
7.06814 -1.33206 10.4582 -0.793164 -0.0228253 -0.608581 122 138 73
7.1698 -1.35528 10.4621 0.168983 0.0402253 -0.984798 156 171 106
7.22757 -1.3575 10.4866 0.0427073 0.647707 -0.760692 138 154 84
6.33919 -1.20879 10.5699 0.277875 0.790968 -0.545119 117 133 48
6.36538 -1.18316 10.4434 -0.231603 0.68426 -0.691482 130 145 68
6.44007 -1.20272 10.4523 -0.16442 0.773857 -0.611646 111 131 47
6.53372 -1.19992 10.4411 -0.329416 0.875912 -0.35251 126 147 63
6.55495 -1.22674 10.3445 -0.553513 0.741109 -0.379975 139 162 70
6.66364 -1.23112 10.3939 -0.611715 0.551285 -0.567354 140 163 66
6.89088 -1.26563 10.5715 0.233996 0.786771 -0.571171 133 156 72
7.49235 -1.361 10.491 -0.238956 -0.187206 -0.952814 125 141 69
6.53028 -1.16084 10.5208 -0.342569 0.868039 -0.359382 114 129 55
6.55675 -1.16302 10.5159 0.0541266 0.878279 -0.475075 118 134 58
6.67565 -1.19758 10.513 -0.53563 0.743897 -0.399647 124 141 61
6.70539 -1.2115 10.4362 -0.0804472 0.908665 -0.409703 122 140 58
6.78781 -1.19798 10.5947 -0.49513 0.786107 -0.369975 105 121 45
6.82606 -1.19563 10.5796 -0.182151 0.907889 -0.37757 106 124 45
6.7872 -1.22369 10.368 0.0177083 0.892518 -0.450664 144 167 74
6.9841 -1.22853 10.6477 -0.272584 0.897132 -0.347637 117 137 58
7.13038 -1.24345 10.6301 0.136587 0.817729 -0.559163 139 155 80
7.19933 -1.26531 10.572 0.034931 0.823871 -0.565701 139 154 81
7.46966 -1.31347 10.5023 -0.420277 0.186007 -0.888126 146 160 90
7.52818 -1.31542 10.4993 -0.324824 -0.0913714 -0.94135 138 150 85
6.41541 -1.09339 10.569 -0.551117 0.705913 -0.444924 118 130 63
6.43967 -1.0971 10.6026 -0.522037 0.584844 -0.620834 117 129 61
6.42944 -1.13236 10.4838 -0.439692 0.421944 -0.792865 121 134 62
6.57094 -1.12269 10.6424 -0.0642644 0.865028 -0.497591 124 140 61
6.65337 -1.14621 10.616 0.20785 0.812548 -0.544577 124 141 61
6.72415 -1.17818 10.6254 0.0416998 0.743453 -0.667487 114 130 54
6.79162 -1.1527 10.6761 -0.0953812 0.749372 -0.655244 108 126 49
7.05969 -1.21308 10.6777 0.164363 0.834569 -0.525812 117 136 60
7.11703 -1.21044 10.664 -0.288299 0.867008 -0.406424 129 145 71
7.45057 -1.26771 10.5264 -0.843601 0.465175 -0.268234 147 157 91
7.43995 -1.25979 10.5628 -0.739833 0.614411 -0.274128 140 150 85
6.64946 -1.11275 10.69 0.326777 0.738213 -0.590134 142 162 76
6.72655 -1.13177 10.6979 0.141969 0.848555 -0.509705 127 146 63
6.88751 -1.11845 10.7714 -0.303814 0.780926 -0.545758 126 148 61
7.09406 -1.14179 10.698 -0.290942 0.00288139 -0.956736 116 130 54
7.14819 -1.14235 10.6872 0.139073 0.73442 -0.664294 120 131 64
7.40497 -1.21575 10.7766 0.11979 0.518355 -0.846734 139 149 83
7.40407 -1.21934 10.7869 0.0576341 0.669849 -0.740257 139 148 83
7.46088 -1.19237 10.8029 0.126453 0.512652 -0.849233 140 147 84
7.46138 -1.19255 10.8018 -0.00712091 0.656503 -0.75429 141 148 84
7.56752 -1.21111 10.7123 -0.668553 0.690735 -0.275538 141 147 87
7.64354 -1.24161 10.6032 -0.828749 0.49841 -0.254483 146 154 91
6.58805 -1.06661 10.7774 -0.304517 0.877773 -0.369844 130 153 65
6.59752 -1.05854 10.7442 -0.86472 0.351714 -0.358548 132 157 66
6.71563 -1.06115 10.8121 -0.377647 0.849353 -0.368757 137 162 66
6.81136 -1.09366 10.8031 0.332797 0.725407 -0.602521 136 160 67
6.91665 -1.07298 10.9064 0.0547952 0.639207 -0.76708 126 152 56
6.94341 -1.07325 10.8743 0.491913 0.528907 -0.691577 130 155 60
7.02462 -1.09935 10.9371 -0.315098 0.514534 -0.797476 123 146 56
7.12904 -1.09704 10.7151 -0.602342 0.54511 -0.583129 121 134 61
7.22905 -1.12453 10.7505 -0.275626 0.742053 -0.611055 124 131 69
7.30529 -1.14503 10.7377 -0.352676 0.778966 -0.51849 132 137 78
2.84101 -0.529244 10.2304 0.63016 0.331692 -0.702054 133 148 82
6.73233 -1.01517 10.9065 0.0339147 0.766242 -0.641656 142 165 76
6.80542 -1.03894 10.8546 0.0426594 0.87738 -0.477895 137 162 69
6.89929 -1.01714 10.9327 -0.00412789 0.84481 -0.53505 124 149 58
7.14298 -1.04934 10.7426 0.343954 0.69519 -0.631195 125 138 67
7.33239 -1.09681 10.8957 0.359088 0.65836 -0.661527 116 125 65
2.72774 -0.437557 10.1201 -0.101097 0.836122 -0.539147 103 116 56
2.80042 -0.454798 10.0838 0.441338 0.765318 -0.468518 101 115 58
2.8164 -0.474959 10.221 0.790908 0.0896022 -0.60534 122 135 78
6.69441 -0.989454 10.965 -0.186831 0.581864 -0.791535 128 151 66
6.74487 -0.987317 10.9296 0.331788 0.663697 -0.67039 139 160 77
6.8014 -0.98871 10.9336 0.000312142 0.759621 -0.650366 153 174 90
7.02952 -0.986822 10.9968 -0.718071 0.61433 -0.327068 133 155 69
3.07369 -0.471763 10.3807 0.800513 -0.0936945 -0.591946 122 144 64
6.71008 -0.897596 11.0152 0.0792851 0.860712 -0.50288 119 136 67
6.72177 -0.942016 10.9634 -0.221213 0.235955 -0.94625 120 139 63
6.8496 -0.934873 10.9802 0.52814 -0.349059 -0.774097 127 144 68
7.10669 -0.975158 10.9959 -0.676865 0.534751 -0.505861 128 144 70
7.46246 -1.01708 11.0419 0.538577 0.344218 -0.769057 117 125 60
2.25663 -0.277549 9.64874 0.885351 0.187381 -0.425489 74 87 39
6.84676 -0.862029 11.0066 0.494072 -0.335599 -0.802039 121 134 65
7.01719 -0.889955 11.1027 0.458795 -0.227554 -0.85891 102 119 48
7.12549 -0.932842 11.0394 -0.542812 0.767194 -0.341715 131 146 77
7.24053 -0.935068 11.1067 -0.790747 0.525939 -0.313222 144 155 94
7.35816 -0.940797 11.1434 -0.670305 0.156874 -0.725315 123 134 74
6.76558 -0.798357 11.0092 0.500357 0.518177 -0.693639 119 125 63
6.99371 -0.830443 11.1053 0.305466 -0.326436 -0.8945 96 107 43
7.06645 -0.834326 11.1032 0.566015 0.344938 -0.748762 104 117 55
7.12732 -0.888897 11.1252 0.131433 0.832898 -0.537593 88 113 77
7.21021 -0.883191 11.1009 -0.438231 0.786899 -0.434447 95 119 87
7.34127 -0.888059 11.21 -0.539823 0.641853 -0.544624 126 137 76
7.35453 -0.888394 11.1807 -0.31225 0.70342 -0.638515 125 136 75
7.96496 -0.959536 11.2648 -0.0868605 0.835829 -0.542074 130 146 68
2.25924 -0.194762 9.56742 0.868458 0.250493 -0.427824 109 129 60
2.48534 -0.262389 10.446 0.71009 0.356437 -0.607228 98 115 51
6.74937 -0.762784 11.0771 -0.848758 0.301732 -0.434243 135 140 77
6.77828 -0.743868 10.9921 -0.861928 0.287677 -0.417519 118 120 65
7.28903 -0.840752 11.252 -0.623087 0.56711 -0.538655 106 117 58
7.35313 -0.832507 11.2271 -0.753053 0.550217 -0.360794 107 119 56
7.48529 -0.853142 11.1644 -0.446304 0.735004 -0.510472 117 129 64
2.36423 -0.204256 10.4605 0.843218 0.037691 -0.536249 118 140 69
6.55206 -0.666858 11.3083 -0.888594 -0.193527 -0.41587 153 158 109
6.60404 -0.695727 11.1126 -0.0791316 0.885522 -0.457809 121 125 95
6.68608 -0.695727 11.1902 0.540923 0.45404 -0.70799 129 132 74
6.75026 -0.700081 11.163 0.240613 0.773658 -0.586138 128 132 75
6.77803 -0.736016 10.9421 -0.818362 0.398887 -0.413729 119 121 64
6.7537 -0.713582 10.3514 0.457488 0.556185 -0.693803 112 119 55
7.35837 -0.775205 11.2711 -0.664337 0.650105 -0.368809 97 109 46
7.41741 -0.818659 11.2262 -0.549732 0.641857 -0.534616 119 132 64
7.54877 -0.82509 11.2816 -0.15547 0.703257 -0.693728 122 136 69
7.9568 -0.846026 11.4244 0.17529 0.778175 -0.603089 126 141 65
6.51593 -0.624226 11.2881 -0.905951 -0.100604 -0.411256 173 181 130
6.56979 -0.620468 11.2486 -0.537311 -0.227243 -0.812193 136 144 90
6.59651 -0.616978 11.2463 -0.0186414 0.0970702 -0.995103 128 138 81
6.65729 -0.644615 11.2302 0.172414 0.211994 -0.961942 131 140 80
6.71754 -0.643576 11.2258 0.443466 0.596941 -0.66858 139 148 90
6.75348 -0.637769 11.2586 0.234558 0.774919 -0.586927 124 134 76
6.82183 -0.646026 11.3097 0.224898 0.587258 -0.777527 120 129 70
6.70849 -0.662165 10.3308 0.261548 0.751947 -0.605119 155 160 94
6.73485 -0.655974 10.2507 0.274797 0.374366 -0.885628 151 156 91
6.86723 -0.669953 10.4911 0.414724 0.603407 -0.681105 124 131 83
7.2885 -0.733799 11.3326 0.241524 0.760498 -0.602752 105 115 57
7.42547 -0.757289 11.3163 0.319742 0.583757 -0.74632 118 130 65
7.50675 -0.759979 11.3241 -0.247223 0.54258 -0.8028 111 125 55
7.48562 -0.759268 11.331 -0.182445 0.200603 -0.962534 111 124 55
7.56557 -0.77666 11.3153 -0.343412 0.576015 -0.741806 128 141 75
7.54753 -0.771667 11.3215 -0.379433 0.63735 -0.670683 125 139 71
7.63196 -0.775613 11.3194 0.217898 0.461033 -0.860214 128 140 78
7.86081 -0.800143 11.4005 -0.236639 0.527196 -0.816129 113 125 59
7.96472 -0.82249 11.4103 0.311594 0.27262 -0.910268 120 135 62
8.01106 -0.814277 11.3303 0.22532 0.493525 -0.840038 119 134 63
2.43005 -0.0938946 10.574 0.267872 0.413207 -0.870348 110 137 63
2.4297 -0.093905 10.5749 0.28104 0.410687 -0.867383 110 137 63
2.46724 -0.0921507 10.7184 0.415475 0.566955 -0.711297 118 144 71
2.46724 -0.0921507 10.7184 0.415475 0.566955 -0.711297 118 144 71
2.46724 -0.0921507 10.7184 0.415475 0.566955 -0.711297 115 140 67
2.6857 -0.134543 10.681 0.692273 0.103332 -0.7142 115 135 61
6.54749 -0.575941 11.3066 -0.494279 0.129008 -0.859677 131 139 86
6.65272 -0.587586 11.2538 -0.0212152 0.574039 -0.818553 110 122 62
6.71943 -0.616256 11.2579 0.407417 0.63093 -0.660257 144 155 97
6.8165 -0.587141 11.3374 0.135497 0.754685 -0.641943 126 139 78
6.89343 -0.625099 11.2996 0.180383 0.800561 -0.571458 126 135 75
7.43116 -0.70285 11.3815 -0.743161 0.547071 -0.385261 122 133 73
7.49504 -0.703866 11.3765 -0.26602 0.467554 -0.842987 110 123 60
7.57559 -0.71525 11.3819 -0.361881 0.685777 -0.631469 130 142 81
7.59581 -0.724445 11.3754 -0.00684643 0.604717 -0.796411 133 145 85
7.98617 -0.764534 11.4259 -0.783652 0.505489 -0.361068 115 126 62
7.92404 -0.762622 11.4086 -0.236444 0.00210474 -0.971643 106 117 54
2.57057 -0.0795014 10.6381 0.405128 0.579466 -0.707171 123 145 72
2.73743 -0.0905414 10.7426 0.537538 -0.0156399 -0.843094 130 152 67
6.52985 -0.528021 11.3659 0.170228 0.714212 -0.678913 129 139 82
6.58527 -0.52976 11.2841 -0.695332 0.454621 -0.556626 117 128 69
6.58927 -0.550864 11.2451 -0.787137 0.232045 -0.571463 121 132 75
6.73178 -0.534831 11.3402 0.460599 0.569255 -0.681026 118 133 68
7.37148 -0.63643 11.4679 -0.232036 0.827151 -0.51184 116 128 65
7.5924 -0.667461 11.4091 -0.282071 0.845517 -0.453361 150 160 106
6.45154 -0.486734 11.3616 0.239463 0.774696 -0.585238 122 134 70
6.52896 -0.466723 11.422 -0.322138 0.844812 -0.427222 116 129 60
6.66643 -0.471862 11.4351 -0.890391 0.235745 -0.389394 122 136 62
6.81332 -0.485407 11.4373 -0.553858 0.109039 -0.825441 144 158 88
7.30175 -0.543104 11.5796 -0.47513 0.765276 -0.434287 124 138 66
7.33286 -0.550416 11.6518 -0.145703 0.842035 -0.519372 125 139 67
7.44704 -0.567463 11.5749 -0.168753 0.751752 -0.637489 105 121 55
7.54558 -0.592178 11.5526 -0.0463683 0.865267 -0.499163 114 129 70
2.78783 0.00260512 10.9679 0.145339 0.838709 -0.524828 110 133 53
6.52372 -0.409162 11.6029 0.364015 0.681537 -0.634823 136 150 77
6.69467 -0.414381 11.5686 -0.62842 0.668702 -0.3974 141 156 74
6.76936 -0.44739 11.4819 -0.517749 0.546155 -0.658522 144 160 82
7.08526 -0.48461 11.6021 0.0323376 0.771676 -0.635194 136 155 80
7.21686 -0.501424 11.6021 0.27523 -0.0232618 -0.961097 150 167 90
7.28841 -0.503768 11.6664 0.11569 0.813525 -0.569907 138 154 78
7.61499 -0.514873 11.6415 -0.272403 0.688616 -0.672015 108 122 61
7.62861 -0.558783 11.5494 -0.119143 0.841896 -0.526324 117 129 74
7.73083 -0.526794 11.6556 -0.196483 0.879795 -0.432846 131 140 87
7.86583 -0.594937 11.5305 -0.290763 -0.0646289 -0.95461 119 127 76
6.53809 -0.338234 11.7027 0.250496 0.75947 -0.600381 117 133 62
6.61673 -0.383505 11.5566 -0.696459 0.597107 -0.398006 136 152 69
6.80955 -0.409119 11.6614 -0.512892 0.757365 -0.404153 144 160 77
6.90907 -0.393682 11.7613 0.221261 0.77026 -0.598117 142 158 75
7.40311 -0.451098 11.8186 0.0254529 0.375238 -0.926579 114 133 58
7.55808 -0.481364 11.7545 -0.705454 0.623444 -0.337124 127 142 78
7.61239 -0.458837 11.686 -0.775001 0.513139 -0.368866 113 126 69
7.71575 -0.488932 11.736 0.333018 0.654791 -0.678489 132 142 85
6.62493 -0.312271 11.7234 0.0636802 0.830571 -0.553261 122 139 67
6.91239 -0.325178 11.8606 0.216719 0.7696 -0.600624 127 144 64
7.00608 -0.374754 11.8114 0.224199 0.765114 -0.603602 126 143 57
7.10106 -0.331997 11.9015 -0.0477687 0.794193 -0.605786 139 157 71
7.23544 -0.39682 11.7532 0.484571 0.453729 -0.747878 103 127 48
7.30474 -0.396441 11.7868 0.492222 0.313942 -0.811886 112 135 59
7.37589 -0.398518 11.8407 0.0327248 0.0553097 -0.997933 106 126 54
7.45706 -0.430183 11.8099 -0.0367864 0.383658 -0.922742 125 143 73
7.45602 -0.430265 11.812 0.0224738 0.286505 -0.957815 125 143 73
7.52445 -0.43115 11.8335 0.0137014 0.320465 -0.947161 113 129 63
7.61514 -0.434045 11.7488 -0.480758 0.774248 -0.411598 117 129 71
7.75854 -0.439139 11.7888 -0.16276 0.280852 -0.94585 146 157 100
6.61436 -0.251082 11.7753 0.0665485 0.828408 -0.556157 105 123 62
6.79769 -0.27285 11.8219 0.0394391 0.830096 -0.556224 104 120 51
7.00946 -0.306323 11.9249 0.204825 0.768176 -0.606592 132 148 69
7.00936 -0.304963 11.9207 0.231528 0.7578 -0.610028 132 148 69
7.09082 -0.271823 11.9466 -0.152165 0.730122 -0.666159 145 160 83
7.1046 -0.329169 11.9026 -0.0933491 0.817385 -0.568479 138 157 71
7.68776 -0.385535 11.8169 -0.518587 0.587584 -0.621138 139 148 88
7.73873 -0.382435 11.757 0.342869 0.328626 -0.880026 130 139 82
7.73687 -0.381909 11.7433 0.254511 0.347063 -0.902647 130 139 82
6.69104 -0.202884 11.8796 -0.306556 0.828232 -0.4691 90 108 48
6.77763 -0.210822 11.8427 0.00397372 0.56472 -0.825273 105 122 61
6.99245 -0.236247 11.9561 0.173365 0.786861 -0.592279 115 130 60
7.02773 -0.245578 12.0069 -0.721473 0.559323 -0.408209 121 136 65
7.08637 -0.269928 11.9275 -0.0866525 0.861511 -0.500291 145 160 83
7.80447 -0.329351 11.948 0.368309 0.451741 -0.812575 116 123 68
7.82793 -0.34963 11.9308 -0.200573 0.666473 -0.718042 122 130 75
7.09854 -0.158239 12.0732 -0.805322 0.461401 -0.372244 137 151 89
7.66562 -0.265091 12.0383 -0.180256 0.862558 -0.47276 138 148 87
7.16192 -0.128794 12.0866 -0.734912 0.0927445 -0.67179 125 138 78
7.20764 -0.144868 12.0376 -0.466664 0.43242 -0.771516 127 139 77
7.1842 -0.157714 12.0048 -0.568008 0.544024 -0.61758 130 143 80
7.30536 -0.170293 12.0975 -0.217562 0.84469 -0.489046 132 143 78
7.37348 -0.171513 12.0332 -0.13101 0.740594 -0.659058 134 143 82
7.39831 -0.12311 12.1194 -0.2294 0.858656 -0.45835 118 128 69
7.51398 -0.133125 12.1907 -0.0999658 0.856605 -0.506196 129 138 81
7.59605 -0.155369 12.1963 0.290307 0.312953 -0.904313 129 138 82
7.7097 -0.171348 12.2164 -0.772961 0.26908 -0.574568 133 140 85
7.66221 -0.155467 12.1921 -0.240892 0.226824 -0.943675 127 135 81
7.79517 -0.164961 12.2104 -0.214927 0.861062 -0.460845 128 133 78
8.37171 -0.266355 12.0484 0.330798 -0.0512846 -0.942307 118 123 70
8.53701 -0.252705 12.1265 -0.29876 0.167015 -0.9396 109 115 62
7.24707 -0.0818321 12.2664 -0.780822 0.426502 -0.456524 123 139 70
7.27681 -0.0585376 12.4245 -0.331634 -0.772321 -0.541793 113 125 65
7.54334 -0.0703697 12.3474 -0.380609 0.663798 -0.643823 121 129 72
7.59974 -0.0879468 12.1486 0.376051 0.600395 -0.70577 138 152 81
7.77872 -0.133212 12.2184 -0.901756 0.22006 -0.372034 118 124 68
7.7636 -0.140122 12.2417 -0.885612 0.333895 -0.322809 126 132 77
7.84785 -0.110405 12.2662 -0.842475 0.357125 -0.403359 111 117 60
7.85463 -0.164872 12.1945 -0.0996341 0.0356323 -0.994386 125 130 72
8.37064 -0.203383 12.1014 -0.0568872 0.68098 -0.730089 131 136 84
8.37507 -0.216515 12.1091 -0.148299 0.722319 -0.675472 130 134 82
8.55784 -0.229508 12.1403 0.141138 0.653196 -0.743919 129 135 82
8.59938 -0.252756 12.11 -0.136997 0.0974863 -0.985763 113 119 66
7.31565 -0.000400428 12.3425 -0.448276 0.450512 -0.772067 132 138 79
7.47842 0.000178506 12.3924 -0.402627 0.606869 -0.685275 132 136 82
7.40274 -0.0547452 12.2795 0.476709 0.488935 -0.730541 102 111 53
7.63098 -0.048964 12.3372 -0.732417 0.577043 -0.361369 102 110 51
8.57104 -0.184657 12.1357 -0.625055 0.340942 -0.702185 134 141 85
2.0772 0.59016 11.5069 -0.427247 0.581665 -0.692189 74 84 56
2.11503 0.596052 11.5718 -0.468096 0.454404 -0.757894 77 88 53
7.47351 0.0555799 12.4814 -0.700651 0.60308 -0.381292 142 143 94
7.4821 0.0611667 12.4574 -0.680398 0.623641 -0.384878 139 140 91
7.56414 -0.000678768 12.4399 -0.0248747 0.60882 -0.792918 119 126 69
7.64423 0.0155512 12.4437 -0.729779 0.578886 -0.36375 108 114 57
8.04138 0.00628718 12.5103 -0.404279 0.678231 -0.613646 111 116 63
8.01705 -0.0544136 12.379 0.20185 0.737198 -0.644822 123 128 73
8.0378 -0.051594 12.2973 0.00600893 0.828384 -0.560129 124 130 75
7.64081 0.0740855 12.5301 -0.719745 0.447473 -0.530788 103 105 52
7.77523 0.0727694 12.5815 0.067847 0.806189 -0.587756 115 118 64
7.9552 0.077323 12.5872 -0.0237482 0.35857 -0.933201 112 115 64
7.97702 0.0480946 12.5211 0.50254 0.300583 -0.810619 106 110 58
8.69176 -0.0394252 12.5624 0.0336991 0.615667 -0.787286 125 132 70
8.83449 -0.0498642 12.5599 -0.767371 0.430994 -0.474748 138 147 84
2.27922 0.670716 11.8566 0.45472 0.201536 -0.867533 73 82 45
2.44406 0.672148 12.014 -0.395052 0.582046 -0.710744 93 101 55
2.40064 0.720552 12.0659 0.205494 0.711098 -0.672393 88 95 54
2.6908 0.637043 11.9457 0.131917 0.721727 -0.679491 98 107 62
7.55868 0.137256 12.5939 0.425316 0.546316 -0.721557 121 125 77
7.74453 0.128908 12.59 -0.442297 0.0799085 -0.893302 128 126 72
7.89317 0.135574 12.5398 -0.592952 0.453833 -0.665164 132 133 85
8.02218 0.0771212 12.5679 -0.00011535 -0.0442552 -0.99902 111 114 63
7.99342 0.137199 12.581 -0.0923122 -0.0881921 -0.991817 135 137 88
7.96492 0.135516 12.5344 -0.555288 0.580139 -0.595898 132 134 85
8.08946 0.0708277 12.5489 -0.234569 -0.237426 -0.942659 114 119 68
8.39602 0.0833243 12.6302 0.358813 0.273242 -0.89252 134 137 80
8.43375 0.073104 12.6354 0.192787 -0.103408 -0.975777 123 127 70
2.27628 0.748043 12.0173 0.206881 0.766909 -0.607495 70 78 42
2.49897 0.748383 12.0569 0.200627 0.627515 -0.752312 72 80 43
2.56139 0.739378 12.0239 0.652544 0.469123 -0.595072 65 75 39
2.56837 0.737231 12.0606 0.656917 0.509598 -0.55567 66 76 40
2.63441 0.721877 11.9674 0.736965 0.335264 -0.586925 65 76 40
2.64883 0.715035 11.9433 0.715072 0.338003 -0.611904 66 77 40
2.63055 0.707298 11.9802 0.0518108 0.624109 -0.779618 71 82 44
7.71772 0.184987 12.6116 -0.530467 0.727823 -0.434601 141 137 81
7.7925 0.185737 12.6435 -0.345501 0.282578 -0.894863 141 137 82
7.84767 0.183501 12.5735 -0.549439 0.509067 -0.662547 143 141 89
8.03304 0.195568 12.5905 -0.181796 0.486634 -0.854481 163 163 111
8.06078 0.137218 12.5759 0.0962329 0.14811 -0.984278 135 137 84
8.06102 0.137127 12.5766 0.187033 0.109185 -0.976267 135 137 84
8.16435 0.134264 12.6423 0.493203 0.075274 -0.866651 139 139 88
8.61259 0.140888 12.7313 -0.225079 0.765991 -0.60216 129 136 73
2.49477 0.822822 12.1772 -0.288583 0.706828 -0.645844 74 81 44
2.55774 0.813836 12.2448 0.620866 0.576968 -0.530692 73 82 44
2.69193 0.836672 12.523 -0.171478 0.714724 -0.678059 65 73 40
7.79874 0.291059 12.7608 -0.0473864 0.83052 -0.554969 128 121 65
7.85716 0.244077 12.7229 -0.76624 0.526117 -0.368887 151 147 92
7.89694 0.254622 12.7758 -0.500219 0.757592 -0.419327 147 142 87
7.97652 0.251745 12.7043 -0.478963 0.735152 -0.479736 152 148 95
8.02452 0.254608 12.6892 -0.749993 0.559438 -0.352901 155 150 97
8.03326 0.271547 12.7777 -0.47268 0.742446 -0.474708 154 148 94
8.12125 0.216339 12.6235 0.389194 -0.157735 -0.90755 157 153 98
8.12084 0.223905 12.6351 0.465284 -0.120594 -0.876908 158 154 99
8.68573 0.154575 12.7755 -0.359546 0.729056 -0.582412 124 130 67
8.76833 0.18335 12.7544 -0.598377 0.299823 -0.743002 147 147 81
1.70223 0.874768 11.5634 0.869791 -0.32514 -0.371144 62 74 36
2.11928 0.904484 12.1517 0.0772095 0.813115 -0.576961 66 76 44
2.22342 0.863985 12.0643 0.0453247 0.811359 -0.582788 67 76 43
2.27286 0.880591 12.2236 -0.014369 0.797765 -0.602798 90 99 65
2.40158 0.873236 12.1445 0.600926 0.458391 -0.654802 89 99 60
2.63455 0.856306 12.4015 -0.0355335 0.586456 -0.809201 73 82 45
2.72461 0.870757 12.5158 0.306605 0.760659 -0.572182 71 79 42
2.69126 0.902753 12.579 -0.253421 0.702251 -0.665298 86 95 53
7.63168 0.377391 12.7867 -0.0759101 0.716756 -0.69318 172 162 111
7.78693 0.354038 12.8595 -0.162468 0.71521 -0.679763 141 130 74
7.91383 0.329431 12.9255 0.0182592 0.697369 -0.71648 154 144 86
8.03677 0.334634 12.8705 -0.422223 0.723535 -0.5461 155 142 88
8.15793 0.326078 12.8667 -0.0718107 0.788829 -0.610403 165 155 99
8.51947 0.22652 12.7812 -0.150568 0.221582 -0.963447 149 149 88
8.81815 0.217853 12.7923 0.550162 -0.0959161 -0.829531 135 132 67
8.9727 0.192129 12.9144 0.354277 0.442298 -0.82393 137 133 67
1.86052 1.01381 12.3686 -0.282148 0.638604 -0.715945 59 69 39
2.0473 1.00263 12.3809 -0.461442 0.62718 -0.627468 60 70 44
2.04543 1.00499 12.4036 -0.468732 0.622063 -0.627158 60 70 44
2.14559 0.947899 12.3656 -0.0418941 0.784466 -0.618755 77 87 53
2.27421 0.948961 12.3098 -0.0153677 0.794553 -0.607 88 98 63
2.63049 0.92931 12.5434 0.282658 0.772577 -0.568532 92 101 57
2.62699 0.928377 12.5377 -0.482784 0.488919 -0.726552 91 101 57
2.73211 0.922749 12.5362 0.361858 0.610707 -0.704341 104 114 67
2.77937 0.954751 12.5939 -0.254455 0.703431 -0.663654 137 147 96
7.4026 0.455683 12.7614 0.453234 0.505757 -0.734022 173 171 106
7.78697 0.42515 12.9672 -0.0795943 0.831621 -0.549611 158 145 91
7.77457 0.446574 13.0001 0.451905 0.48894 -0.746137 178 164 110
7.84221 0.420521 12.9607 -0.204904 0.544698 -0.813215 165 150 94
7.90343 0.399043 12.9745 -0.0861317 0.806218 -0.585315 170 156 98
8.05816 0.402375 13.0291 -0.839276 0.425036 -0.339057 168 149 93
8.123 0.368576 12.9262 -0.690122 0.0863429 -0.718524 180 166 111
8.22959 0.371731 12.9237 0.260682 0.513738 -0.817385 167 155 97
8.33821 0.344357 12.9777 -0.0789425 0.71006 -0.699702 166 155 96
8.41502 0.344023 12.9716 0.0740834 0.42606 -0.901657 156 147 90
8.48565 0.342774 12.9352 -0.558688 0.553081 -0.618037 148 139 86
8.59077 0.297041 12.9194 -0.912452 0.210493 -0.350891 137 134 78
8.64905 0.324022 12.8586 -0.85225 0.411148 -0.323462 142 137 85
8.87876 0.279829 12.9031 0.342136 0.333496 -0.878478 121 118 60
9.01833 0.258868 12.976 0.169831 0.555617 -0.813909 141 132 73
2.04618 1.06138 12.4583 -0.370002 0.623911 -0.688356 73 83 56
2.51019 1.00932 12.8256 0.740143 0.370493 -0.56118 96 104 68
2.60716 1.00289 12.6267 -0.702555 -0.256967 -0.663614 105 113 72
2.63475 0.994005 12.5866 0.518534 0.519708 -0.678989 103 113 68
2.75237 0.98453 12.5766 0.60649 0.393979 -0.690616 128 139 89
7.48241 0.521938 12.9864 -0.247507 0.828753 -0.501905 194 175 115
7.57319 0.472393 12.9143 -0.200368 0.835556 -0.511564 169 152 95
7.53321 0.481228 12.9404 0.286588 0.671895 -0.682953 148 145 93
8.0138 0.44273 13.0468 -0.263294 0.553407 -0.790201 162 139 84
8.15466 0.443778 12.987 -0.367817 0.137769 -0.919636 183 163 108
8.29638 0.415382 12.9639 0.179611 -0.199641 -0.963267 178 162 105
8.3948 0.406682 13.0244 -0.668553 0.521425 -0.530238 180 167 113
8.56304 0.385235 12.9667 -0.88721 0.301803 -0.348959 147 135 87
8.63369 0.384621 12.9337 -0.886167 0.327424 -0.327875 136 124 78
8.69462 0.37432 12.8345 -0.519074 0.650386 -0.554582 160 151 100
1.65088 1.10838 11.8347 0.905578 0.111296 -0.409318 63 72 41
2.58525 1.13099 13.1697 0.791299 -0.0790966 -0.606291 109 118 77
7.58408 0.549569 13.0394 0.128156 0.764414 -0.63186 149 134 90
7.71337 0.558144 13.0721 0.100962 0.702022 -0.704962 172 157 101
7.68828 0.566497 13.1165 0.141099 0.755936 -0.639259 164 147 91
7.89911 0.53921 13.0979 0.134717 0.144269 -0.980325 160 136 84
7.96155 0.528942 13.1249 0.515368 0.364172 -0.775741 170 143 92
8.00481 0.512186 13.0922 0.570567 -0.301135 -0.764049 174 148 96
8.0766 0.564973 13.143 -0.321874 0.811607 -0.487537 198 171 119
8.07284 0.491887 13.0522 -0.272011 0.679982 -0.680907 178 154 99
8.15814 0.529085 13.069 -0.0280184 0.714787 -0.698781 195 172 116
8.2434 0.491667 13.0065 0.493253 0.374619 -0.785087 163 142 87
8.4615 0.466719 13.0376 -0.515258 0.547566 -0.659303 165 147 99
8.52112 0.466235 12.9992 -0.368603 -0.0892283 -0.925295 167 148 100
8.52936 0.445523 13.0008 -0.517679 0.194867 -0.833088 158 142 94
8.59523 0.444183 12.9499 -0.144413 0.434175 -0.889178 142 122 73
8.71706 0.471611 12.9617 0.150443 0.728191 -0.668659 215 193 142
8.82983 0.432634 12.993 0.0532088 0.716406 -0.695652 145 136 97
8.92557 0.458604 13.0474 0.22385 0.67219 -0.705727 134 127 91
8.92713 0.391518 12.9686 0.45304 0.38536 -0.803898 102 102 72
9.0327 0.402858 13.0242 0.242547 0.652463 -0.717958 131 118 65
9.1312 0.429234 13.0864 0.240896 0.652967 -0.718055 137 125 70
1.82038 1.23761 12.6547 0.00818315 0.795176 -0.606324 65 73 49
2.04605 1.20785 12.5916 -0.337547 0.643265 -0.687221 91 98 71
7.36515 0.670622 13.2007 0.247246 0.69302 -0.677195 192 175 118
7.46497 0.704493 13.2586 -0.369072 0.787277 -0.493944 203 184 127
7.49368 0.664819 13.2058 -0.259744 0.813534 -0.520285 218 198 141
7.59684 0.693552 13.2674 -0.298809 0.802063 -0.517116 212 193 139
7.67446 0.640886 13.1623 0.21867 0.702043 -0.677731 142 132 95
7.70361 0.621945 13.1434 -0.412168 0.764331 -0.495899 182 163 110
7.80508 0.613147 13.17 -0.0795892 0.103002 -0.991492 180 163 110
7.88292 0.613256 13.1893 0.213937 0.255216 -0.942919 176 154 102
7.93868 0.609258 13.134 0.461967 0.449362 -0.764631 175 150 98
8.07433 0.630406 13.2426 -0.57492 0.399942 -0.713802 197 170 119
8.16084 0.60187 13.1546 -0.239521 0.640487 -0.729662 208 181 128
8.24564 0.566629 13.096 0.0306964 0.731825 -0.680801 175 151 98
8.3406 0.601828 13.1387 -0.485851 0.741623 -0.462542 188 163 112
8.4608 0.534881 13.0819 -0.951591 -0.154446 -0.265747 188 166 114
8.51124 0.53332 13.0109 -0.484998 -0.154312 -0.860793 200 174 124
8.59337 0.513998 13.0151 -0.305414 0.555621 -0.77331 172 145 92
8.68283 0.488929 12.9825 -0.152008 0.708197 -0.689457 207 181 130
8.84953 0.518218 13.1317 0.291878 0.61349 -0.733783 204 181 126
9.01661 0.485441 13.0821 0.20196 0.685645 -0.699359 131 123 81
9.11371 0.513223 13.13 0.204044 0.680336 -0.703924 156 142 86
7.37454 0.759639 13.3211 0.162872 0.700366 -0.694953 201 185 125
7.5171 0.798544 13.5122 -0.00835184 0.533292 -0.84589 202 184 127
7.56476 0.755443 13.3953 -0.222427 0.762486 -0.607571 204 186 128
7.77768 0.726216 13.2445 -0.666103 0.620059 -0.414528 190 169 115
7.8476 0.682302 13.1842 0.220074 0.684602 -0.694901 195 177 122
8.06354 0.693037 13.3319 -0.895843 0.251411 -0.366411 197 174 118
8.13132 0.699384 13.2906 -0.771204 0.486631 -0.410408 215 189 134
8.17879 0.658706 13.2098 0.11634 0.557709 -0.821843 231 200 150
8.17397 0.626913 13.1466 -0.762546 0.126836 -0.634379 223 194 143
8.45571 0.666591 13.239 -0.843985 0.379564 -0.378973 160 144 108
8.46216 0.615636 13.1547 -0.933359 -0.137714 -0.331474 160 145 111
8.52794 0.633743 13.1067 -0.721406 0.443127 -0.532177 213 183 128
8.49134 0.594882 13.0761 -0.529125 0.236954 -0.814788 214 188 134
8.55324 0.607128 13.0411 -0.847335 0.426486 -0.316438 207 176 122
8.59764 0.598534 13.0615 -0.0456665 0.545345 -0.836967 221 190 135
8.68027 0.558647 13.0452 0.0560126 0.5905 -0.805092 224 193 138
8.78308 0.597243 13.1552 -0.469238 0.482153 -0.739827 216 182 126
8.91994 0.542558 13.1172 0.204446 0.684664 -0.699598 193 179 136
9.12695 0.587555 13.2594 -0.132363 0.826531 -0.547108 203 181 126
9.2234 0.563177 13.1795 -0.152123 0.797437 -0.583911 123 107 56
1.46157 1.35661 12.4191 0.922339 -0.00211914 -0.386375 40 45 28
1.51588 1.36015 12.4634 0.921724 -0.0248875 -0.387047 36 39 23
1.66573 1.37018 12.6792 0.889957 -0.141921 -0.4334 53 55 36
2.31476 1.33124 12.8708 0.552598 0.602824 -0.575533 103 108 76
2.38938 1.32626 13.0563 0.767429 -0.384465 -0.513068 92 97 69
2.42275 1.28031 12.9367 0.512683 0.0183875 -0.858381 89 96 68
2.59492 1.31537 13.1399 -0.450204 -0.498039 -0.74113 88 90 64
