ply
format ascii 1.0
element vertex 1157
property float x
property float y
property float z
property uchar red
property uchar green
property uchar blue
end_header
-0.0915451   0.168554      2.148 92 96 71
 0.305275 0.0863047     2.398 207 200 190
-0.014125 0.0980779    2.0448 84 86 83
  0.681885 -0.0849572    3.43193 63 90 45
-0.0174227   0.205111    1.80487 209 197 173
 0.893835 -0.692856    4.2283 33 31 52
0.0124383  0.176333   1.85061 71 78 36
0.0295994  0.132435   2.50724 50 53 62
0.0820914  0.124027   2.42821 133 132 130
-0.0297654   0.208179    1.79013 68 63 59
-0.0103086  0.0182183    2.05768 58 70 46
 0.444212 0.0476867   2.48579 136 112 68
-0.129877 0.0387043   2.01813 34 54 81
  0.703615 -0.0576949    2.80608 111 135 61
-0.0935735  0.0549122    1.98812 13 16 21
 0.311905 0.0968523   2.31651 78 76 79
-0.063699  0.150917   2.07261 26 22 19
-0.126754  0.231921   1.76471 123 125 122
0.00571852   0.177014     1.8719 138 146 99
-0.00147241    0.196649     1.82671 67 61 47
  0.524323 -0.0388815    3.19806 75 90 49
  0.536143 0.00837906    2.71611 77 70 41
-0.00569985    0.182914     1.94783 78 83 51
 0.135103 0.0984183   2.62452 56 56 66
0.0653802  0.144109   2.08167 104 108 81
 0.899321 -0.698239   4.26984 251 255 255
-0.070131 0.0484789   1.99493 125 124 119
0.114361  0.13914  2.02724 182 181 161
  0.714937 -0.0714347    3.04218 94 110 48
  1.02658 -0.176077   3.38706 90 106 44
 0.681535 -0.045619   2.83803 68 87 31
 0.120452 0.0995021   2.67321 78 78 88
0.0495677  0.147962   2.09509 98 98 64
 0.870969 -0.111819   2.93089 112 114 65
-0.00727463    0.179758     1.89171 57 55 30
0.338878 0.088704  2.33986 163 158 154
-0.0235634   0.200995    1.85303 46 43 28
-0.0169057    0.19416    1.85034 79 75 48
  2.13903 -0.579256   5.18804 126 135 90
-0.0790905   0.208953    1.78998 37 37 35
0.110971 0.119288  2.46164 119 120 115
-0.0958788  0.0256127    2.00336 41 49 70
-0.0186164   0.173623    2.05552 28 29 34
-0.0588642 -0.0286238    2.05331 6 62 111
   0.545204 -0.00706147     2.76768 59 62 41
   0.63092 -0.0606573    2.86236 115 133 59
  1.79818 -0.472526    4.5412 119 154 62
-0.0605861  0.0105139    2.07843 98 102 113
-0.0896718   0.211468     1.7986 24 23 28
 -0.103629 0.00385364    2.04173 39 47 58
  0.688381 -0.0489013    3.08741 102 120 58
-0.120192  0.220905   1.70533 22 21 19
0.0721861  0.124517   2.39385 102 102 100
 0.460456 0.0198179   2.67357 106 106 72
-0.0855634  0.0688802    1.99204 109 109 107
 0.440167 0.0320653   2.65901 70 75 43
-0.316662  0.301298   1.65615 27 31 42
  1.03025 -0.190957   3.58022 90 102 56
 0.130596 0.0983291   2.66616 55 58 67
 0.361742 0.0600765   2.57334 56 58 37
 0.269317 0.0901649   2.42071 197 190 180
0.0275535  0.171281   1.89916 111 118 76
0.00134497   0.176437    1.87261 113 119 73
 0.302994 0.0213243   3.11879 56 61 41
  0.625799 -0.0356419    2.89419 45 59 23
-0.0500597   0.204891    1.81321 55 50 47
 0.885811 -0.617768   4.12658 37 27 35
   0.523437 -0.00406951      2.7767 39 44 24
0.150325 0.102766   2.5798 66 65 73
   1.0152 -0.580837   4.58442 41 35 37
  0.583174 -0.0271871    2.89717 56 67 33
0.322795 0.075168  2.45167 185 177 166
  0.611956 -0.0325801    2.98239 103 116 63
0.0292685  0.132351   2.50666 50 53 62
-0.069476   0.17825    2.0579 63 58 52
  0.786635 -0.0983599    3.27014 124 136 74
-0.0838357   0.224487    1.72518 20 20 20
-0.0895381 0.00395945    2.04785 81 84 91
  0.663733 -0.0546332    3.02445 78 92 33
-0.059806  0.174954   2.10481 78 74 62
  1.64998 -0.443141     4.396 135 169 74
 0.453443 0.0367004   2.53698 151 127 89
   0.56111 -0.0151115    2.82307 81 91 57
  2.07261 -0.618038   6.96111 234 229 210
0.0091043  0.130458   2.48544 91 91 93
  1.73179 -0.463498   5.23967 112 128 63
 0.353894 0.0536069     2.581 122 123 91
  0.588285 -0.0276054    2.88425 54 72 32
-0.00983891     0.17444     1.95574 82 87 46
  0.768748 -0.0912618    3.21168 67 74 41
-0.166966  0.234712   1.81125 23 18 22
-0.0757963 -0.0151518    2.09258 223 251 255
   0.66818 -0.0498203     3.0029 120 132 66
0.196014 0.112309  2.31751 127 127 129
-0.0451621   0.161657    2.03817 18 21 28
0.017478 0.169698  1.92062 64 68 33
0.00992317   0.125797    2.06822 255 255 255
  0.0244 0.172252  1.88639 93 99 63
 2.17276 -0.58145  5.28556 107 121 59
 0.340199 0.0690143   2.54635 165 167 154
0.108964 0.143796  2.00073 140 134 118
-0.0625468   0.151191    2.07449 15 11 8
0.0370935  0.158176   2.04122 74 81 40
0.0215815  0.165787    1.9619 156 165 112
0.0780621   0.14753   1.98286 252 254 253
0.046392 0.155728  2.02015 70 74 39
0.0553563  0.149748   2.03287 71 71 33
0.208399 0.106293  2.36707 103 103 103
  1.31887 -0.711997   5.15804 55 49 37
0.0171866  0.134466     2.494 53 53 61
0.0324529  0.126031   2.55732 111 112 114
  1.21897 -0.254417   3.92256 110 134 58
-0.095772  0.223328   1.76413 55 52 47
  0.602329 -0.0380092    2.99157 60 77 25
0.0194535  0.164877   1.98649 79 85 47
-0.0334147   0.208284    1.79644 107 103 94
0.0814106  0.152837   1.96255 251 255 250
0.0738085  0.153567   1.98256 146 138 135
0.0321667  0.169866   1.95983 63 70 29
0.00317457   0.176843    1.86933 134 141 100
-0.0163478   0.133397    2.03958 131 150 167
  1.57244 -0.386783   4.23481 110 135 52
-0.00113066    0.169177     1.97679 90 91 57
  0.799634 -0.0977835    3.22285 135 144 99
 0.192493 0.0803279   2.71054 144 145 139
  1.05835 -0.576984   4.67391 33 26 34
0.251933 0.101189  2.29464 118 114 111
  1.21267 -0.275658   4.38829 110 138 64
2.11614 -0.6146 6.74384 243 241 218
   0.3846 0.0437216   2.57434 82 78 49
0.0307979  0.157097   1.97346 252 254 249
 0.187574 0.0802529   2.74081 89 88 86
 0.158446 0.0874047   2.70057 107 106 112
-0.0121602  0.0317378    2.00564 215 231 254
0.0792963  0.154227   1.99707 76 69 61
-0.00283245    0.133944     2.05003 119 125 141
-0.109045  0.241511   1.58859 59 62 69
-0.0943001   0.260145    1.51904 49 55 53
-0.0544508   0.225493    1.65397 216 207 178
-0.0218547   0.205652    1.77206 124 113 85
  1.03634 -0.338899   5.46898 26 22 23
-0.103491  0.229982   1.70105 65 69 72
-0.0505029    0.16844    2.07389 29 22 29
-0.0212978   0.136432    2.52544 171 165 153
-0.0223718   0.180322    1.90813 54 59 37
-0.0195248    0.13381    2.64053 52 52 54
  0.20587 0.0947642   2.49848 185 179 167
  0.480776 -0.0398789    3.23775 34 37 30
-0.119465  0.232198   1.64299 63 66 75
  0.534889 -0.0574003    3.42094 48 52 37
-0.0831783   0.229395    1.61361 190 187 170
  1.09988 -0.598902   5.72195 113 129 162
  1.00681 -0.630394   5.47047 63 56 64
-0.00860063    0.207178     1.72087 169 155 129
0.120731 0.135825  2.21282 99 99 99
-0.0321177   0.208691    1.77919 56 59 40
-0.102582 0.0563378   1.99292 56 57 62
-0.0663331  0.0389402    2.01141 116 122 134
0.00679727   0.199889    1.76977 186 168 146
 0.997179 -0.325668   5.53425 35 32 25
  0.22636 0.0990688   2.43066 161 158 153
0.0710606   0.15311   2.00865 84 80 68
-0.00975759  -0.0193548     2.05456 24 28 29
0.0111794  0.161344   2.01111 59 66 33
0.227846 0.087694  2.55411 61 61 63
0.00217542   0.109952    2.84449 114 116 111
0.00608877    0.14609    2.05645 74 71 56
-0.114064  0.229317   1.68525 82 82 90
0.0638579  0.158045   1.99312 83 81 66
-0.0580396    0.21749    1.69369 102 90 68
-0.0307401   0.209111    1.80058 110 111 97
-0.0592074   0.141556      2.057 49 63 74
-0.0840452   0.225305    1.67856 144 136 125
-0.10756 0.227417  1.78083 94 93 91
0.0306183  0.173233   1.82898 64 67 38
-0.007073  0.186305   1.84525 87 91 56
0.00465185   0.120722    2.73333 66 66 66
-0.0220492   0.207993    1.74135 139 130 115
0.0196938  0.100964   2.90176 82 82 90
0.00606192   0.141616    2.05603 74 67 57
-0.0457446   0.213364    1.73179 76 63 46
0.0185972  0.167294   1.95199 129 135 97
 0.170316 0.0721686   2.83007 30 31 26
 0.177209 0.0877528   2.32715 125 121 120
 0.328331 0.0795008   2.45918 144 139 133
0.031261 0.178969  1.89234 128 136 87
-0.0506123 -0.0551821    2.02812 89 111 38
  1.37967 -0.362538   5.23571 100 114 52
-0.0400635   0.212191    1.76233 176 167 138
0.188402 0.118403  2.25935 64 67 74
-0.00500553   0.0287015     2.00108 41 51 26
  0.721676 -0.0787058    3.18508 59 76 24
-0.312052  0.290631   1.59653 33 39 51
  0.26841 0.0901858   2.41988 196 192 181
-0.0435788   0.159865    2.11863 94 78 63
-0.318921  0.293968   1.61536 31 38 48
-0.0793508   0.208345    1.78258 45 46 41
-0.134539  0.231576   1.73073 192 198 186
-0.00590326    0.185528     1.85125 94 98 63
-0.101546  0.230721    1.6837 100 104 107
-0.0724155  0.0240772    2.02516 133 145 161
0.000772698    0.185956     1.83998 100 101 70
 0.401456 0.0605801   2.51777 93 87 55
 0.281574 0.0873148   2.38844 159 158 153
 0.441896 0.0287829    2.6608 63 67 44
-0.0331756   0.192161    1.84321 76 76 48
  0.604359 -0.0368796    3.02789 68 81 37
 0.275697 0.0818195   2.49958 167 164 157
-0.000172738     0.172427      1.97674 90 94 59
-0.015628  0.175919   1.95709 142 143 109
0.113204 0.141965  1.99735 89 89 61
  0.761532 -0.0845401    3.11458 131 141 89
-0.0300829   0.206709    1.80942 61 56 52
0.0137441  0.146662   2.41323 86 86 86
-0.0762136   0.222778    1.70624 255 233 227
 0.367105 0.0748948   2.40277 106 103 96
 0.324184 0.0655307   2.56474 53 49 38
0.00599714   0.172724    1.87396 69 77 36
 0.346787 0.0634318   2.53237 53 54 40
0.00291662   0.145167     2.4104 124 123 119
0.090671 0.124202  2.44333 133 132 130
0.0576455  0.114541   2.62523 123 123 123
  1.04839 -0.202473   3.77708 98 127 43
-0.0187697   0.173937    1.96762 72 75 44
 0.369784 0.0483269   2.59169 83 83 45
-0.0774623  -0.054698    2.05585 106 130 80
0.042342 0.155188  2.01399 72 78 42
-0.0561855    0.13891    2.04651 82 97 120
0.0496661   0.12579   2.52306 53 52 58
-0.000875692     0.197236       1.8152 213 201 187
  1.25916 -0.329045   5.11218 77 97 46
0.0163187  0.128603   2.53614 124 120 117
  0.739663 -0.0813904    3.16629 93 100 67
0.0172088  0.187006   1.84442 49 51 29
0.0995368    0.1439   1.99925 173 173 161
-0.0851737   0.210777    1.75973 85 87 73
0.0336025  0.126048   2.55976 111 112 116
 0.457096 0.0249919   2.65128 91 86 48
-0.0751676   0.219512    1.71532 229 200 170
 0.323635 0.0701786   2.53758 168 166 153
0.0195218  0.158931   2.05327 88 87 66
-0.0503967   0.161804    2.13995 65 64 46
0.321472 0.075704  2.47287 141 140 136
0.0148115  0.190434    1.8366 43 36 26
0.234037 0.106282   2.3111 84 85 89
 0.329939 0.0793655   2.46175 140 137 130
  0.466096 -0.0269949     3.1754 74 94 33
0.00246418  0.0681386    2.06607 55 56 38
-0.358628  0.304373   1.70094 26 32 44
-0.328635  0.299527   1.65105 32 39 49
-0.0318191    0.16654    2.16215 73 70 51
0.0441789  0.133861   2.39376 59 57 70
-0.348988  0.305635   1.63824 81 87 99
-0.0352482   0.113526    2.13047 78 79 84
  0.463708 -0.0198213    3.06237 34 39 19
 0.257259 0.0906431   2.44007 164 160 151
 0.885605 -0.683057   4.25569 28 22 32
 0.489956 0.0143233   2.68033 113 104 75
-0.0232903   0.188915    1.93987 44 52 29
 -0.0825855 0.000946746     2.03415 26 64 101
0.0208188  0.165416   1.98883 79 85 47
  0.37789 0.0476739   2.59163 137 141 106
-0.0593271   0.133964    2.10439 59 59 61
0.0156289  0.165068   2.02028 64 71 27
 0.971641 -0.769781   4.29064 252 253 255
 0.147295 0.0833947   2.75366 62 62 70
-0.0622973   0.145125    2.05593 81 90 99
 0.306541 0.0960892   2.28409 186 183 178
-0.0551878   0.167762     2.1045 75 68 49
-0.118948 0.0643079   2.01899 26 24 35
  1.41163 -0.468524   6.23137 57 52 56
 0.22075 0.107385  2.31579 151 147 146
0.0852141  0.113077   2.61901 178 175 166
   2.0908 -0.645063   7.12698 83 78 74
 0.431913 0.0169543   2.76309 75 85 48
 0.288453 0.0611615   2.62577 64 67 48
 0.457012 0.0209612   2.72237 56 60 33
-0.099277 0.0539523   1.98742 26 26 34
-0.231442  0.249455   1.80172 69 73 84
  0.535358 -0.0233152    3.01569 81 96 57
  1.33279 -0.517563    6.0845 75 80 86
-0.150712  0.233642   1.78246 68 73 79
 0.155005 0.0929689   2.72329 58 61 70
0.0358238  0.158703   1.99268 63 73 39
  0.595331 -0.0308811     2.9824 97 107 55
0.0823542  0.152268   1.96277 251 255 253
 0.328344 0.0741265   2.44737 176 169 163
-0.0939823  0.0229076    1.99987 85 100 121
  0.605588 -0.0379787    2.99717 59 75 26
-0.0502714   0.150739    2.40421 131 129 130
-0.11921 0.229485  1.72728 27 30 37
 0.970956 -0.251602    4.8028 61 68 50
 0.897837 -0.156331   3.82526 114 124 90
-0.0238009   0.140634    2.03858 101 101 101
0.224818 0.091981  2.48599 111 111 109
 0.339451 0.0648148   2.55037 48 45 36
-0.0622324 -0.0577951    2.05541 6 69 120
-0.438987  0.298608   1.91148 89 93 102
-0.0454976   0.158048    2.15605 53 57 30
-0.368078  0.253107   1.98972 80 93 101
-0.264778  0.211832    2.0624 49 55 43
  1.10131 -0.146235    2.6118 199 198 131
-0.0888225   0.155077    2.19451 50 66 30
-0.182877  0.180535   2.15648 35 46 30
-0.0549022  0.0983733     2.0859 111 123 135
-0.136379  0.205961   1.92364 43 57 44
  1.11701 -0.150443   2.65113 235 242 164
  1.15359 -0.168865   2.66678 116 125 58
  0.35842 0.0443843   2.61507 152 164 92
0.145307 0.120452  2.30815 85 87 99
0.0808731  0.125481   2.38712 189 191 180
  1.56158 -0.316435   2.99158 114 136 64
  1.03503 -0.139256   2.65707 167 174 106
0.00376652   0.168628    2.00626 126 130 80
  1.96628 -0.699706   3.94303 79 81 76
-0.0728138  0.0227227     2.0813 245 255 250
 0.960137 -0.148724   3.15688 126 136 67
 0.915306 -0.121777   2.99359 123 133 72
 0.600418 -0.019487    2.7984 154 164 103
  1.16945 -0.184553   2.69572 123 144 69
0.0959689  0.134459   2.27852 83 84 89
   1.9578 -0.907385   3.96036 82 83 78
 0.224163 0.0933811   2.48857 147 142 138
  1.70212 -0.377939   3.09962 120 158 83
  0.948415 -0.0967838    2.55137 121 130 75
  0.702818 -0.0573135    2.91588 111 140 48
 1.64656 -0.40432  3.73474 113 157 72
0.208312 0.111696  2.41257 100 103 108
0.00119064   0.167194    2.05156 37 37 29
-0.0361053   0.144621    2.22929 112 119 103
  0.615524 -0.0141884    2.81703 89 101 51
-0.0536167   0.174502    2.04652 33 32 40
-0.0362067   0.161208    2.12047 90 74 51
-0.230952  0.244868   1.82282 125 135 137
-0.213781  0.231149   1.87975 15 20 16
 0.528256 0.0066565   2.70348 109 106 55
  1.78016 -0.432933   3.42899 33 52 22
-0.0559408   0.149243    2.19503 87 95 58
 0.899736 -0.119235   2.96582 131 143 77
-0.0232686    0.13693     2.0492 159 187 211
  0.826231 -0.0592942    2.48071 137 142 78
  1.68546 -0.424148   3.77713 111 154 65
-0.320086  0.235746   2.02852 44 49 42
-0.120756 0.0375717    2.0084 75 78 87
  2.69289 -0.837274   3.82777 42 36 40
  2.75272 -0.887767   3.86601 38 39 41
  2.65613 -0.851089   3.83798 72 72 74
  0.709102 -0.0509659    2.80155 109 130 71
-0.0736866 -0.0514867    2.05845 39 69 93
  1.64931 -0.346755   3.03397 97 135 52
  0.52795 0.0496027   2.36841 255 252 194
  2.61786 -0.805451   3.83714 42 43 45
 2.43618 -1.12073  3.88112 106 104 105
  0.496444 0.00939434    2.71951 106 109 54
  1.41735 -0.257548   2.83024 114 140 51
  1.99142 -0.577417   3.93462 128 141 150
  0.632199 -0.0339719    2.84916 99 127 50
 0.409286 0.0596303   2.50047 136 127 88
 0.421823 0.0448931    2.5296 255 232 166
   0.77173 -0.0322645    2.40619 109 127 53
 0.272295 0.0727746   2.57337 238 234 225
-0.202204  0.237026   1.86726 21 26 19
  2.67058 -0.897276   3.66963 68 64 65
  1.69015 -0.420007   3.76919 123 168 85
   1.0632 -0.178622    3.1062 170 170 96
 0.378146 0.0354236    2.6208 137 139 76
-0.049169   0.14183   2.11298 255 255 248
  0.699338 -0.0453082    2.77908 130 141 81
 1.79365 -0.40349  3.25226 113 145 70
0.0206906  0.161662   2.01989 84 95 37
  1.27616 -0.257212   3.44208 162 145 73
  1.80155 -0.465062   3.92966 81 104 96
  1.69589 -0.373323   3.04785 138 165 96
-0.244438  0.238962   1.95104 45 44 40
  1.10705 -0.189649   3.05305 151 183 60
 2.12159 -1.02067   3.9037 78 77 59
  2.6918 -1.17944  3.71295 100 99 95
-0.234827  0.240363   1.90828 57 59 58
  2.61992 -0.872017    3.8245 50 48 51
-0.315531  0.260675   1.87172 90 104 115
-0.315524  0.260668   1.87188 90 104 115
 0.383146 0.0545652   2.59852 107 107 69
-0.03577  0.21535  1.69519 93 85 66
-0.113079  0.273088   1.40252 49 52 59
-0.102827  0.270357   1.33991 64 64 76
-0.126915  0.276014   1.36313 163 168 161
0.0134139   0.21374    1.6019 155 145 118
-0.137563  0.275262   1.38681 137 138 142
0.088145 0.127083  2.35762 150 150 142
-0.0645128   0.209851    1.74851 106 98 85
-0.094647  0.231803   1.63121 134 130 121
-0.0797999   0.231003    1.60025 77 72 66
 0.153419 0.0862248   2.70254 120 120 120
0.00797814   0.189115    1.79631 60 56 44
-0.0416793   0.140216    2.03886 86 95 102
0.00183518  0.0285033    2.04357 21 33 47
0.0457424   0.14132   2.07273 64 66 53
-0.0623897   0.214791    1.73429 74 63 43
-0.0850681   0.264397    1.45561 132 129 124
-0.0435973   0.223352    1.59317 207 197 170
-0.0097353   0.244002    1.42463 180 172 151
-0.0233783   0.237135    1.46629 171 164 148
-0.0281451   0.177137    1.95954 31 34 27
-0.007407 0.0371545    2.0072 44 69 76
-0.00199522    0.180123     1.84365 98 104 68
0.160896 0.147228  2.89972 89 90 94
0.109424 0.114981  2.51998 66 65 70
-0.0405443   0.215461    1.69548 182 174 151
0.0278987  0.199206   1.70535 127 113 87
0.0284576  0.199354   1.70807 128 112 87
 0.168611 0.0915333   2.73672 65 64 70
-0.114891   0.23539   1.63463 80 79 84
-0.0512973   0.217012     1.7249 179 162 136
-0.00904533   0.0186422     2.05033 30 35 31
0.0590943  0.156316   1.93141 87 91 64
0.00818919     0.1219    2.08262 251 253 250
-0.0389934   0.214088    1.71737 111 95 80
0.0869729  0.132542   2.31992 66 65 63
-0.0027582   0.213629    1.56851 200 183 157
-0.014682  0.199479   1.79912 59 45 32
-0.0677214  0.0691826    2.04545 94 89 86
-0.060037  0.264919   1.33992 216 209 191
-0.0723471   0.226398    1.59981 153 145 124
-0.00818843    0.203769     1.77626 153 145 126
0.00977859   0.208164    1.67038 132 118 92
 0.261009 -0.199494   4.00124 59 59 69
-0.0062169   0.209948    1.68526 179 163 138
-0.00611197    0.209998     1.68559 179 163 138
 0.152043 0.0922297   2.70313 61 62 67
-0.0347138   0.212139    1.74367 167 159 138
0.0189615 0.0393131   2.04313 31 32 24
-0.00267037    0.110572     2.77257 80 81 83
 0.384982 0.0240966   2.88693 29 32 25
0.0185759  0.106655   2.89274 83 85 84
-0.126999  0.273457   1.47697 118 117 112
   0.421165 -0.00570857     3.05168 28 31 22
-0.108867  0.264218   1.54964 108 108 100
-0.018155  0.211828   1.67468 167 147 120
-0.00923507    0.141498      2.4819 64 66 78
0.168892 0.106921  2.54243 56 56 64
  0.410175 0.00975394    3.02121 69 78 47
0.0853018   0.14032   2.05385 134 135 119
-0.100379  0.219282   1.75868 56 55 53
0.00183392   0.104925    2.08565 128 129 133
 0.554284 -0.534142   4.71859 28 21 29
0.0601894  0.157195    1.9437 90 88 63
0.00075292   0.177925    1.88459 118 124 90
0.0283239  0.098745    2.8894 45 45 53
-0.0667302   0.229712    1.57459 193 185 162
 0.185406 0.0910399   2.56233 61 60 65
 0.10341 0.141683  2.05893 127 125 113
 0.228084 0.0799893   2.63915 139 138 133
0.0634753  0.153055    1.9608 132 128 119
-0.0113086   0.114459    2.76195 59 59 59
0.0382095  0.123503   2.14583 69 67 68
 0.214671 0.0866256   2.46337 183 180 161
0.0262883  0.193594   1.79306 155 139 123
 0.308127 -0.547128   3.49407 31 25 29
-0.0484195   0.205798    1.83129 57 52 49
0.00039668   0.180366    1.85119 98 104 68
0.0365476  0.156926   2.02983 120 121 81
-0.0780104   0.240204    1.54378 179 168 148
0.0491039  0.150528   2.03901 133 128 90
-0.011316  0.195946   1.82398 119 104 85
 0.19275 0.100391  2.32386 75 74 79
 0.288211 0.0611384   2.62454 71 74 55
-0.0722784   0.237672    1.55554 149 141 118
-0.0151716   0.211019    1.72404 161 150 130
0.0185864  0.191492   1.80873 59 47 33
0.148326  0.13074   2.1864 127 120 112
0.0832396  0.142827   2.02869 74 75 57
 0.306835 0.0682874    2.6051 60 56 45
-0.0623763 -0.0686845    2.02769 36 38 51
0.0537507  0.158335   1.90956 101 107 71
0.0459349   0.11665   2.68092 54 53 58
-0.0426525   0.219749    1.61531 223 211 185
0.0165056  0.187551   1.81825 104 98 86
  0.22127 0.0855228   2.61873 77 76 74
-0.0317486   0.212883    1.75284 167 159 138
-0.0844867 -0.0123235    2.05304 16 44 68
-0.0538087   0.262834    1.39397 202 193 176
-0.0709389   0.244563    1.51474 148 143 123
 0.11899 0.107908  2.56789 98 97 95
-0.0570127   0.262107    1.33092 208 202 180
-0.084372  0.235287   1.57513 170 161 144
-0.0957449   0.231577    1.62642 138 133 129
-0.00962145    0.216503      1.5735 208 188 161
-0.025559  0.208975   1.76066 168 154 128
0.134332 0.106868  2.51139 91 92 96
 0.13055 0.112649  2.49141 58 59 63
-0.0298231   0.248409    1.43398 186 182 157
 0.390319 -0.170393   5.20697 33 40 46
-0.0233416   0.237191    1.46661 171 164 148
-0.0407812   0.215349    1.69439 182 174 151
-0.00850691    0.207267     1.72125 169 155 129
0.0229651  0.169634   1.83036 97 103 69
-0.00875985     0.20317     1.75189 107 95 81
0.0984371  0.118099   2.41971 101 101 101
-0.0200255   0.208133    1.76936 138 124 98
-0.0923864   0.270242    1.31589 199 195 186
0.00472735    0.19506    1.82358 55 49 33
-0.0288212   0.223336    1.51761 174 166 143
-0.0162696   0.213805     1.6655 192 171 144
-0.0408654   0.220748    1.67032 127 115 91
-0.0182599   0.227867    1.48865 197 187 160
0.0939114   0.13242   2.30547 97 97 97
-0.0275767   0.210381    1.72478 81 72 57
0.0308077  0.198628   1.69381 170 154 129
-0.0244806 -0.0420619    2.03763 152 173 80
-0.0439971 0.00471597    1.98188 108 129 52
  1.75821 -0.459843   3.55206 31 48 32
0.0166588  0.189705   1.84069 63 60 43
0.167029 0.107412  2.49503 68 71 78
-0.0887535   0.222357    1.81145 29 34 27
   0.84896 -0.0871212    2.73214 155 166 100
0.327189 0.102565  2.17901 254 252 229
  1.35538 -0.312419   4.27131 115 118 63
-0.101738 0.0338733   2.04198 5 11 27
-0.0995495   0.169675    2.17484 111 121 96
1.35436 -0.2778 3.35846 120 127 73
 0.36204 0.085141   2.2798 238 232 206
-0.270092   0.24466   1.95366 28 29 31
0.20221 0.13011 2.06836 201 194 168
  1.98744 -0.604689   3.89454 40 41 43
0.159761 0.133449   2.0055 196 199 152
0.290418 0.116869  2.11288 254 251 232
 0.595405 0.0119883   2.51294 203 184 128
0.0457864   0.13617   2.42788 71 68 77
0.0462159  0.136183   2.42868 67 66 74
 0.789369 -0.104718   3.34689 145 158 79
0.0742018  0.158074   1.91052 106 108 59
 0.848029 -0.123948   3.41972 78 92 33
  1.00742 -0.154641   2.96301 117 126 59
  1.97341 -0.785637   3.95908 72 73 65
 0.412401 0.0758199   2.28003 255 250 228
  0.674303 -0.0371704    2.69712 105 123 61
  0.600616 -0.0353751    3.02413 83 106 38
  0.573595 0.00889642    2.56918 149 134 75
 0.523482 0.0357004   2.41893 158 128 78
 0.396704 0.0762808   2.32471 255 252 230
0.228315 0.133319  2.08598 217 216 185
-0.0790429   0.170182    2.13548 58 63 41
  1.24556 -0.274016    3.9867 92 126 40
0.0433534  0.128843   2.46743 125 125 125
  1.51237 -0.359664   4.08901 89 121 45
  1.20096 -0.225725   3.08164 148 179 76
 0.218297 0.0789331   2.64641 135 137 136
0.107494 0.139412  2.02912 179 174 155
  1.14636 -0.235417   3.75006 92 128 40
 0.829434 -0.113923   3.34307 112 125 55
  0.85452 -0.128065   3.36932 151 168 90
0.0157688  0.181967   1.88089 95 103 54
 0.969714 -0.153414   3.08268 154 159 93
  0.613341 -0.0397209    3.09174 111 133 60
0.0929354  0.144005   1.99212 129 127 106
-0.00587731     0.20137     1.81657 50 36 25
 0.12413 0.135359  2.01107 161 164 135
  0.783789 -0.0549199    2.66512 113 125 63
-0.05425 0.156647   2.0448 11 12 17
0.123985 0.147372  1.99855 91 88 47
      0.6043 -0.000771784      2.58634 120 105 48
-0.0380216   0.194275    1.84368 140 147 113
  0.850689 -0.0851416    2.71073 102 118 56
 0.936905 -0.163985   3.71828 101 123 51
  1.57899 -0.384244   4.28789 109 134 50
  1.40815 -0.299486   3.44173 103 106 59
-0.0664869 0.00420981    2.08339 100 108 97
 0.309075 0.0497168   2.64822 113 120 89
-0.00921375    0.180844     1.87189 96 104 53
-0.0479665   0.124805    2.09702 231 231 231
  2.01416 -0.733012   3.90972 57 42 47
-0.0317831   0.154763    2.15058 97 92 63
0.0268498  0.171195   1.91247 59 65 29
 0.936021 -0.122817   2.87696 92 103 43
 0.935624 -0.122952   2.87624 96 108 46
 0.296607 0.0681419   2.60676 82 80 59
-0.0744561   0.189728    2.01605 58 59 53
0.362309 0.109641  2.15954 228 221 202
-0.0059374  0.0314502    2.01594 180 241 255
  0.625868 -0.0469995    3.05629 139 168 76
0.045814 0.169607  1.89309 98 106 59
0.146757 0.118307  2.35139 106 109 114
-0.0949803   0.173777    2.12488 72 76 53
0.0150546  0.173528   1.88447 86 93 51
  1.63207 -0.435205   4.04979 136 154 72
  1.99891 -0.712019   3.89919 55 50 54
 0.959527 -0.169198   3.53772 143 164 89
 0.476381 0.0637833   2.32607 203 194 177
  0.783213 -0.0953936    3.35545 109 120 60
0.0524493  0.131848   2.45469 69 72 77
0.0135174  0.177229   1.96115 83 92 35
-0.021363  0.177682   1.95963 134 143 90
  0.703106 -0.0469657    2.67181 89 109 48
0.0554047  0.150643   2.03152 71 74 29
-0.0625671   0.176041     2.0957 55 51 40
0.0348543  0.152417   2.08409 100 98 73
 0.569973 0.0227575   2.48365 171 152 93
0.313506 0.110164   2.1344 192 185 169
  0.709226 -0.0279315    2.53496 122 129 62
   0.61899 -0.0485801    3.13131 112 133 66
-0.0249259  0.0722057    2.05715 123 123 121
  1.14677 -0.315753    5.2038 30 32 29
 0.357153 0.0441226   2.55782 108 111 68
-0.0621584   0.223668    1.66496 223 216 187
-0.120989 0.0519318   2.02293 24 23 28
-0.0206593 -0.0202722    2.04762 179 199 210
0.437017 0.025505  2.72106 40 42 21
0.0231477  0.137536   2.42873 65 66 71
0.00372895   0.106372    2.07177 74 75 80
  0.631848 -0.0496283    3.08933 131 150 94
  0.32952 0.0528849   2.65892 56 59 38
-0.0414426   0.213419    1.74144 111 95 79
-0.0414223   0.213714    1.74222 104 98 74
0.044036 0.161443  1.92229 78 81 50
0.0716702  0.153597   1.97757 156 151 147
  0.1054 0.088641  2.78955 86 85 90
-0.0736909   0.136649    2.06955 70 71 75
-0.230826  0.250159   1.80509 65 72 82
0.020294 0.164946  1.98809 69 77 40
  0.639153 -0.0505659    3.19137 96 109 66
 0.118122 0.0826869   2.82696 33 31 32
 0.451964 0.0207768   2.73307 84 86 62
-0.0847091   0.222723    1.80632 69 68 66
-0.118644 0.0339435    2.0052 16 15 29
  0.599288 -0.0271472    3.01483 90 102 56
-0.0103295  0.0565783    2.05793 61 63 52
  1.40806 -0.552813   6.23625 135 145 155
-0.0273323 -0.0142895    2.03385 38 71 112
-0.0879027 -0.0121351    2.04574 16 47 93
0.168544 0.115999   2.3438 82 83 88
-0.0693477   0.210371    1.75934 93 86 78
-0.0229852   0.195338    1.80831 123 115 92
0.0415414  0.158024   1.93883 180 178 166
-0.0117278  0.0317252    2.00632 215 231 254
 0.215766 0.0972044   2.44036 106 106 106
-0.0606003  0.0579506    2.03071 88 87 82
0.0103645  0.179267   1.83847 95 101 67
0.0347697  0.160986   1.92867 83 83 71
-0.0322483   0.211777    1.73237 74 61 52
0.128972 0.110997  2.43222 68 68 70
-0.0119806   0.063465     2.0804 120 121 115
-0.0263563  0.0398573    2.02284 21 47 82
0.0418033  0.174265   1.89969 92 98 64
 0.255681 0.0499222   2.71078 52 57 37
-0.108462  0.227204   1.74786 32 31 29
 0.359041 -0.166773   5.15926 51 60 69
 0.590207 -0.562448    5.0061 49 40 41
-0.152533  0.278501   1.38945 134 138 137
 0.305006 -0.495291   3.12988 26 21 28
 1.05686 -0.43397  5.52262 86 85 83
-0.000232066     0.209719      1.66623 181 161 136
-0.0802783  0.0683965    2.01771 31 25 29
-0.0874998   0.262196    1.51522 66 62 61
-0.0752193   0.264017    1.48934 122 118 106
-0.0111522   0.029895    2.01168 37 80 123
-0.0812344   0.146974    2.30496 133 134 129
-0.0529731   0.131811    2.66273 81 81 81
0.0184972  0.185393   1.80664 62 54 41
-0.110859 0.0351699   2.00825 53 53 63
-0.0149721   0.191686    1.85719 60 62 40
-0.0188254   0.137249    2.03201 95 104 113
0.00042605   0.185433    1.83151 85 89 64
0.028677 0.108501  2.82339 68 69 71
-0.0617833   0.246479    1.50192 170 165 145
0.0217314  0.197173   1.73624 137 123 96
-0.00250865    0.196837     1.82134 82 70 54
-0.0822655   0.215442    1.70708 35 31 30
-0.0325357   0.128058    2.67006 85 85 87
-0.0114453   0.212009    1.68856 170 155 126
-0.0378326 -0.0197415    2.02929 18 67 110
-0.0502966 -0.0560052    2.04644 51 81 115
-0.0700714   0.253732    1.48852 146 139 120
-0.0765168   0.240954    1.54858 179 168 148
-0.0442018   0.220625    1.57189 210 200 173
0.0141898  0.193486   1.81493 67 61 47
  0.31275 -0.538883   3.46757 78 73 80
-0.069177  0.233066   1.55834 153 145 124
 -0.0119291 -0.00830138     2.06465 26 37 43
 0.0359857 -0.0934878    2.10857 130 165 73
  0.911854 -0.0837883    2.55179 138 141 84
  0.792643 -0.0640898     2.5706 129 139 79
  0.704989 -0.0168306    2.36341 131 139 80
 0.896127 -0.110299    2.6073 156 171 88
-0.029697  0.212817    1.8337 53 49 46
 0.625977 0.0261913    2.3202 255 247 188
-0.0197448   0.138278    2.16825 77 82 88
  0.802922 -0.0470792    2.47152 164 177 108
  2.65862 -0.919238   3.72187 50 44 48
-0.0401285   0.170457    2.03413 27 35 38
  2.01136 -0.809462    4.3047 83 82 78
  1.21617 -0.190868   2.75555 139 150 82
 1.03195 -0.17963    3.388 132 155 73
 -0.103413 -0.0136795    2.07156 142 155 85
-0.052403 0.0959604   2.09823 240 240 228
  1.04091 -0.166085   3.11964 147 151 74
 0.247536 0.0916709   2.46439 143 143 141
-0.012018 0.0477235   2.02812 46 60 73
0.119292  0.14586  1.98089 151 154 87
  0.92623 -0.111947   2.60777 134 147 65
  1.18118 -0.199774   2.71494 153 177 81
0.111373 0.148734  1.94708 137 140 71
0.00674925   0.153025    2.04447 106 88 50
-0.341614   0.25139   1.98891 99 98 96
  0.812868 -0.0555259    2.43473 160 182 99
  1.95871 -0.738524   3.94122 78 79 74
  1.19346 -0.199862   2.71228 155 184 94
0.0280931  0.157447   2.07194 118 109 78
-0.23686 0.254573  1.72192 50 58 69
0.273564 0.118859  2.11177 255 255 238
  0.715315 -0.0574001    2.83988 167 194 97
-0.0281203   0.192751     1.9433 30 38 27
 0.372727 0.0306836   2.69587 65 76 34
0.071416 0.142684  2.10273 210 207 188
-0.230826  0.242244   1.86513 73 80 88
 0.876451 -0.131952   3.30542 158 183 91
 0.645622 0.0300096   2.31248 95 94 50
-0.0472537 -0.0476341    2.03766 121 160 191
-0.0946275   0.198536    1.93238 20 28 15
-0.0674367    0.17915    2.05805 77 77 67
  2.64546 -0.808984   3.78787 66 64 67
-0.015852 0.0803595   2.04965 255 255 236
-0.152571  0.212353   1.84835 33 40 33
-0.0356625  0.0835453    2.11207 254 255 243
-0.246927  0.255716   1.78371 86 95 100
0.000539307    0.182753     1.95653 90 97 56
-0.314027  0.247246    1.9516 38 39 43
-0.16846 0.237808  1.80955 69 75 87
 0.810772 -0.100008   3.16926 95 118 40
   0.700957 -4.4784e-05     2.35849 116 112 49
  1.98474 -0.879653   4.24685 122 128 128
 0.985733 -0.103814   2.53278 129 132 75
0.00709106   0.180806    1.90663 92 99 58
  1.52985 -0.353957       3.6 109 130 73
 0.836889 -0.111918   3.26848 128 149 72
   0.79838 -0.0589104    2.54243 116 130 55
0.0376958  0.158231    1.9804 255 254 253
  2.64579 -0.861138   3.69965 45 40 44
 0.251713 0.0892638   2.43984 216 217 203
  1.03111 -0.170963   3.24107 164 179 94
  0.793115 -0.0323815    2.40375 120 135 54
  1.37631 -0.302795   3.50448 119 136 66
  1.61594 -0.403427   4.01913 92 141 34
  0.771532 -0.0391574    2.53654 163 168 101
 0.340571 0.0526996   2.59366 82 92 40
  -0.07755 -0.0433486    2.07199 172 183 123
  2.03534 -0.675194   3.86457 89 90 85
0.121101 0.138997  2.01128 160 162 123
-0.062466  0.158685   2.18969 105 112 79
  0.766328 -0.0343893    2.39661 148 170 87
0.032148 0.151549  2.02669 123 129 59
  2.59645 -0.866484   3.74061 43 41 44
 0.983826 -0.155735   3.09718 194 194 108
-0.015997  0.196397   1.93621 46 40 26
-0.0149898  0.0273497    2.01674 145 165 130
 1.02541 -0.12821  2.58036 149 153 77
  0.43175 0.0202082   2.72968 133 141 92
0.0970871  0.112478   2.47179 88 91 98
-0.310264  0.247171   1.96387 28 32 33
-0.126482   0.21652   1.78874 54 63 46
  1.39143 -0.260323   2.90615 128 164 74
-0.0326923   0.200477    1.91575 57 60 51
-0.0193974   0.178312    1.96807 101 107 73
-0.170841  0.237112   1.81641 74 77 84
  1.82669 -0.508106   3.87544 27 32 38
  1.08828 -0.164999   2.77226 208 215 138
0.0338873  0.139203   2.28789 71 74 81
0.102589 0.124502   2.3461 195 192 185
  2.70055 -0.737785   3.72792 33 31 36
  1.64554 -0.372085   3.38979 116 157 55
-0.0772935  0.0244933     2.0792 251 255 255
0.00788968   0.163466    2.02629 84 90 52
   1.0001 -0.128797   2.68557 118 128 55
  1.76651 -0.409406   3.31445 148 161 108
-0.0152241  0.0483173    2.03411 205 192 158
 0.538797 0.0472606   2.36954 181 171 112
0.0241615  0.167047    1.9408 116 126 65
-0.321699  0.277024   1.82235 71 81 91
 0.378937 0.0501942   2.51626 206 196 143
-0.248543  0.238027   1.92184 35 40 34
  1.10221 -0.150217   2.66912 227 230 161
-0.0692497   0.175441    2.16267 98 104 78
     0.7205 -0.00913942     2.36234 211 202 135
  1.62985 -0.360275      3.24 117 143 70
  2.65256 -0.762454   3.82014 40 39 47
0.0896263  0.111176   2.39328 147 144 151
 0.624073 0.0445308   2.28644 62 58 33
  0.686773 -0.0547624     2.8816 89 117 42
  0.63886 0.0334882   2.29675 64 71 17
-0.0421497 -0.0184574    2.03661 40 98 162
-0.106575 0.0367836   1.99812 13 19 31
-0.0206542   0.136938    2.03866 114 116 113
 0.528671 0.0406349   2.41113 251 228 160
-0.167094  0.232747   1.77696 87 86 91
 0.368399 0.0674272   2.48595 114 110 101
  0.877027 -0.0992346    2.68983 105 116 48
  0.905632 -0.0919219    2.61253 137 136 72
-0.0572146   0.167993     2.1194 110 104 80
  0.684867 -0.0633626    3.06794 146 170 82
  1.51645 -0.338547    3.3384 128 144 81
  0.722227 -0.0797588    3.14509 121 135 82
0.949367  -0.1394  3.15189 166 165 100
 0.787943 -0.103336   2.99207 162 177 112
 0.468552 0.0461782   2.42672 255 252 186
  0.771901 -0.0859286    3.08725 152 188 80
  1.53667 -0.318259   3.03538 145 186 94
-0.191448  0.238634   1.84327 27 26 34
 0.618234 0.0302727   2.31569 255 255 197
  1.23438 -0.209728   2.86142 140 159 78
 1.37781 -0.25971  2.94587 156 182 95
-0.0816019  0.0380243    2.11128 7 50 105
  1.48147 -0.355484   4.15477 108 141 62
  1.47885 -0.313612   3.23289 117 125 66
-0.00455844    0.109855     2.06593 156 156 154
  2.05449 -0.930033   3.90417 80 77 70
-0.0948572  0.0388875    2.06607 104 132 156
  1.04403 -0.166461   3.12288 147 151 74
-0.362997  0.298661   1.76156 58 67 74
 0.301254 0.0478197   2.75556 22 36 13
-0.0741991  0.0327414     2.1322 99 103 70
-0.0467946 -0.0273384    2.03737 30 102 160
0.00488035   0.175276    1.93032 108 117 70
 0.976066 -0.164225   3.52661 140 155 88
 0.531993 0.0447475   2.38405 178 156 96
 0.516332 0.0331356   2.47106 255 241 178
 0.875788 -0.135782   3.47207 163 187 101
0.174879  0.11276  2.39892 87 91 94
0.174739 0.112781  2.38569 85 88 93
  1.25313 -0.271829   3.80808 93 132 26
 0.428429 0.0484586   2.46836 135 116 58
 0.915157 -0.104492   2.74579 144 159 90
0.070523 0.141059  2.03311 198 195 176
  1.48786 -0.315122   3.24331 107 110 53
  1.64017 -0.402465   3.83792 100 153 49
-0.332977  0.213146   1.63216 64 69 75
   0.496668 -0.00568123     2.94426 33 49 12
-0.0883902    0.16595    2.14522 56 59 40
0.00209334   0.166954    2.02463 132 137 107
  1.97384 -0.954383    3.9785 78 77 72
-0.0250733  0.0326934     2.0201 22 96 159
   0.57915 -0.0139057    2.93778 99 111 61
-0.0864724   0.222637    1.79299 83 80 73
  1.57667 -0.353132   3.28284 139 180 76
 0.249623 0.0939159   2.46872 102 102 102
  0.588537 0.00625272    2.58564 154 140 79
 0.779814 -0.105829   3.39891 132 147 90
0.00186015   0.191175    1.85066 67 74 30
  0.804364 -0.0687803      2.716 107 125 43
  1.09884 -0.198798   3.20627 131 151 66
0.125494 0.142166   1.9599 116 115 51
-0.0672994   0.176896    2.08445 95 90 71
-0.0407916   0.189182    1.89037 36 45 26
  2.01643 -0.987904   3.95359 72 71 76
  1.11579 -0.188332   2.99131 120 146 45
  0.847816 -0.0821083    2.64416 103 108 52
 0.520396 0.0297537   2.53671 156 137 81
  0.90506 -0.106872   2.79997 109 111 48
 0.193487 0.0926641   2.56421 85 84 89
-0.0226752  0.0406284    2.01309 27 78 123
 0.474818 0.0506971   2.39466 167 148 90
0.193581 0.090376  2.57361 179 180 184
0.0476533  0.157295   1.96963 90 91 77
0.0259571  0.161752   1.99727 134 147 93
0.839373 -0.10085   2.9066 113 125 63
 0.479331 0.0517169   2.40745 237 222 165
0.171952 0.117793  2.34118 63 64 69
0.257535 0.070474  2.61929 37 32 29
0.0959481  0.125021   2.28991 122 122 114
-0.000269427     0.209687      1.66613 181 161 136
-0.144137  0.276882   1.49577 32 35 44
0.154303 0.110372   2.4412 126 127 122
-0.0743552   0.254527    1.48501 179 172 153
0.0966727  0.122809   2.41153 81 81 81
-0.00321868    0.206779     1.71771 132 115 99
-0.00894232    0.182099     1.88599 102 107 77
-0.121033 0.0382279    2.0372 36 37 42
-0.068844  0.237274   1.54651 190 182 159
0.0381041  0.174466   1.81354 61 64 33
0.00602708   0.141503    2.05587 79 75 66
-0.0158665   0.214572    1.65552 132 114 90
0.149093 0.131374  2.12547 185 179 165
0.181074 0.119696  2.32639 62 62 70
 0.236385 0.0807986   2.63479 125 124 120
-0.163021  0.282284   1.41134 67 71 80
-0.00779229   0.0304273     1.99693 30 32 27
-0.0114368   0.024282    2.03052 26 70 117
-0.141321   0.27725   1.39379 139 143 142
-0.0015707   0.166099    2.01064 80 85 63
 0.224665 0.0989177   2.42631 158 154 151
-0.0380134    0.21746    1.64906 154 138 113
-0.0281729  -0.053782    2.07652 18 21 40
0.0465758  0.150537   2.03173 133 128 90
0.198208 0.102562  2.42028 91 91 93
0.0129929  0.178278   1.82956 65 70 40
-0.0633207   0.215144    1.73166 69 61 40
 0.973168 -0.251824   4.80816 60 66 52
-0.0739244   0.224428    1.61988 152 145 127
-0.0876754   0.214201    1.77033 67 68 63
-0.0794895   0.235673    1.59815 140 134 122
-0.0681081   0.233602    1.56184 167 155 133
-0.0213045   0.214222    1.69218 166 155 127
-0.104832  0.225694   1.73205 17 18 22
-0.113499 0.0146983   2.18655 29 31 26
-0.105216  0.214457   1.78851 29 30 25
-0.0932498   0.263121    1.48742 167 158 141
-0.143868  0.282242   2.14603 49 56 66
-0.0995294   0.268702    1.44536 117 116 111
-0.0516721   0.199185    1.82549 27 22 26
-0.0470929   0.210557     1.8214 38 30 28
0.0115962   0.13669   2.39595 60 60 68
0.0270602  0.193867   1.79456 157 142 123
-0.00215517    0.207762     1.72087 132 115 99
0.0317218   0.16077   1.96057 84 91 60
-0.0467433   0.218707    1.75474 95 90 58
-0.116204 0.0600012   2.02422 22 22 34
 0.993918 -0.574795   5.50242 36 35 43
-0.0687843   0.186719    2.03398 29 31 30
-0.133411  0.275156   1.38213 70 70 72
-0.0821078    0.22124    1.70352 67 54 46
0.0241981  0.204686    1.7866 161 148 129
0.00764576   0.201963    1.74078 77 65 53
-0.058428 0.0537743   2.01786 84 87 80
-0.000381441     0.199415      1.79232 193 178 155
-0.0830143    0.26095    1.49689 166 160 144
-0.0427226   0.218458    1.60504 192 182 155
-0.0580647   0.257781    1.42592 203 195 174
0.0252632  0.160867   1.88377 75 80 50
0.0292351  0.168503   1.88745 68 74 38
0.00518134  0.0842949    2.09313 61 64 69
-0.0285979   0.182772    1.86595 51 56 36
 0.340872 -0.196011   5.10471 44 43 38
0.016975 0.213039  1.63484 174 156 132
-0.0702655   0.253583    1.48753 155 148 129
-0.0677598   0.240214    1.53058 176 171 151
-0.0183168   0.178774    1.87738 92 98 64
-0.0885756  0.0791648    2.08563 150 139 94
  1.69309 -0.400772   3.64621 131 152 87
-0.0579338  0.0607213    2.10086 222 198 128
  0.460811 0.00915263    2.63356 121 119 71
-0.0753346   0.027908    2.02303 21 28 47
-0.185383   0.18876   2.14708 56 62 36
  0.44883 0.0433981   2.54493 223 190 121
0.911801 -0.10451  2.97858 158 171 99
-0.168673  0.180499    2.1862 44 54 30
-0.340116  0.251797   1.99054 124 120 119
-0.109767  0.166926   2.19135 30 37 19
 0.349183 0.0688499   2.44455 226 220 198
  1.41605 -0.267975   2.86156 140 163 73
-0.242058  0.250802   1.79707 97 104 112
-0.340509  0.239324   2.02421 32 32 34
 -0.0263801 -0.00037881     2.03169 175 177 112
 0.922095 -0.133855     2.976 170 169 105
  1.96391 -0.908169    3.9679 81 80 76
  1.23584 -0.240883   3.45094 192 174 100
  1.97785 -0.662032    3.9476 62 64 59
 0.280953 0.0814391   2.49847 229 226 217
-0.352962  0.257653   1.95235 70 80 90
-0.145865   0.20033   1.93431 53 63 52
 0.933939 -0.141316   3.10083 122 133 64
  2.02251 -0.975932   3.88413 49 50 55
   0.90098 -0.0798444     2.4722 121 131 70
  0.922504 -0.0847456    2.54942 131 131 77
   0.82963 -0.0827417    2.76163 118 134 63
  1.52658 -0.348208   3.50086 162 183 106
-0.0507125   0.133732    2.04664 138 155 171
-0.0772484  0.0276719    2.10112 29 76 120
-0.32905 0.230361  2.03833 54 61 53
 -0.0793711 -0.00997941      2.0945 166 192 85
  1.95595 -0.863927   3.95237 79 80 74
   1.4069 -0.312847   3.41905 117 131 72
-0.427813  0.290525   1.92877 87 97 106
-0.0538428   0.175181    2.03049 88 100 96
  0.945196 -0.0961912    2.54894 120 129 74
-0.25987 0.248193  1.85758 56 69 77
  0.731526 -0.0215378    2.45669 185 188 121
-0.0271218   0.124855    2.12962 88 91 96
0.000120616    0.182438     1.95706 90 100 50
-0.0361328   0.134227    2.12749 108 109 113
 0.978881 -0.102177   2.52828 130 133 76
  1.11511 -0.207178   3.23208 159 181 81
-0.006282  0.167135   1.99869 148 153 95
-0.0197611   0.192562    1.92027 160 160 136
-0.0717844  0.0901078    2.03292 133 138 142
    2.041 -0.564841   4.16221 67 71 74
0.0236804  0.167427   1.98575 197 204 136
  2.06828 -0.749127   3.89982 100 99 97
  1.84768 -0.401872   3.10867 96 138 52
    0.680898 -1.19352e-05      2.39205 185 150 86
  1.19668 -0.224812   3.10539 167 203 93
-0.377455  0.259201   1.97443 96 106 116
-0.338526  0.250664   2.00305 35 30 36
0.189693 0.104971  2.42688 108 109 114
-0.231258  0.213788   1.98427 44 57 47
 0.997286 -0.157731   3.10929 204 203 113
  1.60979 -0.350517   3.03989 104 148 63
-0.0501654   0.173685    2.02836 24 34 35
0.0857433  0.152436   1.98715 179 180 175
0.028916 0.152936  2.05988 122 112 61
  0.854754 -0.0740027    2.54406 161 172 93
  1.20993 -0.231384   3.26234 170 179 96
-0.284649  0.231115   1.99486 46 56 45
  0.683488 -0.0511015    2.82506 106 132 43
0.215754 0.123848  2.15931 169 169 161
 0.613679 0.0164011   2.37641 255 245 181
-0.317242  0.247344   1.99212 66 65 61
  0.513787 0.00633464    2.72396 104 108 58
  2.01133 -0.748982   3.91308 62 52 60
  0.733076 -0.0183614    2.37361 153 162 95
  2.65303 -0.712608   3.83558 39 40 44
 0.307243 0.0672718   2.58644 75 68 50
-0.30168 0.289783  1.75251 81 93 109
  0.691309 0.00536306    2.34759 219 210 153
-0.0513989   0.144968    2.17083 119 122 105
0.0323011  0.153648   2.02596 117 122 56
 0.37919 0.062285  2.52802 115 109 77
 0.426477 0.0583782   2.48675 153 141 93
  1.09384 -0.194816   3.31835 142 160 74
-0.0731621   0.151296    2.24829 91 100 83
  2.71218 -0.768401   3.84809 52 51 59
-0.0555582    0.16183    2.07987 40 41 35
  0.835607 -0.0943345    2.88098 172 190 108
-0.253649  0.243219   1.91111 35 39 40
  1.35616 -0.238448   2.77653 152 175 95
2.64249 -0.8655 3.76248 63 61 64
-0.0223161   0.153215    2.14918 176 174 126
-0.106155  0.171832   2.15143 100 105 83
0.0520429  0.161169   1.99325 125 120 88
0.00659136   0.212888    1.63982 145 131 104
-0.0278566   0.226265    1.50238 170 162 139
0.034587 0.111333  2.75571 82 82 84
-0.0591078   0.250636    1.48784 161 153 134
0.00197059   0.202785    1.73692 98 86 74
-0.0577825   0.244935    1.49539 183 176 157
 0.15018 0.100109  2.59581 62 62 74
-0.17134 0.234609  1.78055 63 76 82
  0.654102 -0.0660169    3.26249 43 57 32
  0.679324 -0.0891777    3.50451 47 61 35
0.178496 0.133673  2.02121 203 202 158
0.237033 0.127511  2.09054 85 85 77
 0.482295 0.0236747   2.60181 89 87 49
0.0912342  0.111694   2.53654 160 160 160
0.0507028  0.145315   2.01955 77 79 57
  2.00862 -0.793402   4.19082 34 33 29
  0.636509 -0.0844729    3.50065 42 56 33
-0.0221431   0.018047    2.01991 62 82 33
 0.971498 -0.146909   3.11184 104 115 47
   0.451812 -0.00655441     3.03189 90 101 67
 0.400666 0.0771671   2.30313 246 237 220
  0.554239 -0.0391029    3.16059 92 109 64
-0.0728554   0.207516    1.80371 42 42 40
-0.0268218   0.136938    2.04636 131 155 183
0.0392076  0.174543   1.87092 81 86 46
   0.628632 -0.00832932     2.68898 163 167 106
-0.0617847 -0.0356514    2.02571 1 69 118
-0.364022  0.304826   1.71723 40 43 50
0.298351 0.104725  2.23442 108 103 97
0.0210491  0.181488   1.84409 104 112 65
  0.729622 -0.0584165    2.93331 80 98 38
-0.11797 0.221481  1.79345 56 62 50
  1.28231 -0.260741   3.47184 157 139 73
0.116614  0.14202   1.9516 116 115 51
-0.231019  0.241487   1.85383 60 63 72
 0.236618 0.0836107   2.58347 160 164 167
 -0.0197146 -0.00820634     1.89059 126 138 72
0.295235 0.110812  2.14496 194 187 171
-0.113273  0.230223   1.73443 20 24 33
-0.0742114   0.181465    2.04566 33 28 25
   0.0877038 -0.000616653      1.93858 106 112 52
 0.524655 0.0237423    2.5495 133 109 61
-0.108836 0.0515218   2.01374 73 75 87
-0.183357  0.232285   1.74451 55 64 71
 0.395407 0.0450109   2.56032 148 140 94
0.00497826   0.174614    1.85177 98 104 60
  0.722037 -0.0786132    3.18546 56 64 40
-0.0800012   0.189044    2.04298 29 28 24
-0.0406188 -0.0466192    2.03343 190 169 114
-0.0833011   0.227135     1.6924 71 72 76
-0.10472  0.23026  1.67907 100 104 107
 0.0144924 0.00350101     2.0973 107 122 67
-0.0505799   0.141137    2.03542 78 86 97
-0.065731 0.0492316    1.9945 115 116 100
  0.578984 -0.0227665    2.94344 51 57 21
 0.875777 -0.130119   3.28897 116 132 70
0.0197083  0.162854   2.05825 55 57 36
-0.0207231   0.204557    1.79976 170 157 141
0.167552 0.130463  2.11821 159 153 141
-0.026015    0.2006   1.85065 55 48 38
-0.0773496 -0.0190266    2.09156 31 41 42
  0.776146 -0.0892755    3.20182 87 97 60
  0.610646 -0.0254915    2.83561 100 109 62
   0.68106 -0.0617929    3.06586 105 119 60
-0.00794793    0.169313     1.97211 124 124 90
-0.0341959   0.149074    2.04918 73 74 76
 0.398927 0.0408796   2.58091 108 103 63
0.126396 0.114313  2.53303 75 72 83
-0.0747863    0.21955    1.71585 212 181 150
-0.0617902   0.172492    2.07316 39 37 25
0.0085156  0.137609   2.05892 46 47 49
0.187316 0.106522  2.34276 103 103 103
-0.00913152    0.180476     1.87097 79 85 49
0.177304 0.110372  2.33499 66 66 74
  0.68435 -0.063688   3.05462 100 115 50
-0.00383874     0.18767      1.8316 99 98 70
-0.0296222    0.19894    1.83768 132 120 104
-0.0813681   0.211394     1.7887 96 97 92
0.0927792  0.117713   2.46435 95 95 103
 0.326222 0.0658428   2.54003 50 45 39
-0.0522983   0.158831    2.09914 90 81 74
0.073572 0.147691  1.96667 255 253 254
 2.62519 -1.01906   4.0764 99 96 89
-0.142062 -0.063658   2.01801 126 173 61
-0.410325  0.274618    1.9443 108 115 121
 0.831842 -0.104986   3.05163 120 135 70
-0.262102  0.212179   2.06423 49 55 43
  1.00952 -0.126427   2.64214 160 173 93
 0.493648 0.0229154   2.61209 140 135 80
  1.99324 -0.986266   3.94523 46 45 53
-0.161546  0.206547   1.98655 26 31 25
-0.0753917 -0.0118174    2.10022 177 193 95
-0.0552735 0.00411896    2.02569 178 177 159
 0.453981 0.0234147   2.69875 98 98 62
0.0251492  0.165316   1.96354 120 119 63
-0.10114 0.208799  1.87359 31 36 32
  1.96662 -0.951949   3.97591 80 80 78
0.122251 0.135154  2.00912 235 235 199
-0.0847032   0.191365    1.94299 16 30 17
 0.381913 0.0597529   2.52202 105 101 53
-0.0451909 -0.0475974    2.09758 145 163 113
 0.461924 0.0159227   2.73922 115 118 71
0.233406 0.125444  2.08875 104 104 94
 0.321866 0.0597142   2.63599 127 133 99
  1.94854 -0.497313   3.47907 29 50 31
-0.0943941   0.162197    2.17911 72 83 43
   0.93443 -0.0828639     2.4924 121 131 70
-0.113002    0.1954   1.98879 44 45 39
 1.09155 -0.20027   3.3387 122 134 58
  0.637171 -0.0406595    2.88115 124 160 73
0.642102 0.022677  2.29506 117 127 54
-0.395073  0.268229   1.95007 65 75 87
0.182147 0.133168  2.05356 255 255 226
-0.345814  0.247393   2.02252 20 20 20
0.0158901   0.18031   1.94444 96 107 51
0.00405174   0.180027    1.93704 84 97 43
  0.631772 -0.0374246    2.83565 93 118 50
  0.527124 -0.0059943    2.81208 65 76 36
-0.0687235 -0.0735156    2.04935 144 182 83
 0.360281 0.0411403   2.67069 129 140 97
  0.849851 -0.0677251    2.47989 163 168 101
 0.662808 0.0112968   2.35763 157 135 86
  1.63647 -0.336844   3.05566 114 145 65
-0.328106   0.24569   2.02675 26 28 23
-0.0738069    0.15884     2.1745 69 76 43
0.0221597  0.173779   1.93829 163 175 113
-0.0278692  0.0891428    2.11839 155 153 140
-0.0625695   0.154831    2.16604 48 56 32
-0.335337  0.245725   2.00559 14 9 5
  0.810697 -0.0434509     2.4089 118 145 52
0.031291 0.159548  1.96537 251 255 239
