ply
format ascii 1.0
element vertex 752
property float x
property float y
property float z
property float nx
property float ny
property float nz
property uchar diffuse_red
property uchar diffuse_green
property uchar diffuse_blue
end_header
-17.2025 3.59512 29.1086 0.242717 -0.832724 -0.497653 45 50 59
-16.2836 3.52228 29.1433 -0.262393 -0.76768 -0.584652 61 67 75
-16.2723 3.53155 29.2199 -0.327353 -0.698469 -0.636381 61 67 75
-16.055 3.51257 29.3899 0.0909174 -0.874431 -0.476554 58 65 73
-15.5787 3.47575 28.9371 -0.608735 -0.22096 -0.761983 53 57 66
-14.4884 3.41435 29.2539 -0.539152 -0.479426 -0.692435 60 63 70
-14.4653 3.3638 29.3147 -0.185684 -0.19518 -0.96303 60 64 71
-13.7607 3.33608 29.3341 -0.0363925 -0.880213 -0.473181 82 77 70
-13.4507 3.27845 29.4584 0.117127 -0.891842 -0.43692 144 136 126
-17.4072 3.6909 29.0061 0.485559 -0.765522 -0.422147 45 48 56
-17.3168 3.71187 29.0823 0.494001 -0.786853 -0.369899 47 50 58
-17.2267 3.69565 28.8789 0.614897 -0.693909 -0.374689 47 51 59
-17.2714 3.70271 28.9981 0.541402 -0.742182 -0.395031 47 51 60
-17.1784 3.6568 28.99 -0.192744 -0.806181 -0.559394 49 54 62
-16.1367 3.57135 29.0268 0.403888 -0.748928 -0.525339 56 60 70
-16.0432 3.56525 29.1567 0.573224 -0.705372 -0.416971 55 59 66
-16.0688 3.58114 29.3787 0.623376 -0.697774 -0.352865 54 59 66
-15.6274 3.50033 28.878 -0.615898 -0.136002 -0.775999 52 57 67
-14.6398 3.44766 29.1958 0.326072 -0.859 -0.39471 60 62 69
-14.4547 3.42418 29.1142 -0.262178 -0.781919 -0.565566 59 62 70
-14.4454 3.41973 29.1469 -0.425929 -0.642056 -0.637455 59 62 70
-14.4454 3.41973 29.1469 -0.425929 -0.642056 -0.637455 59 62 70
-14.3581 3.40745 29.1529 0.365064 -0.864899 -0.344497 60 61 66
-14.3204 3.4089 29.2617 0.205833 -0.892402 -0.40156 61 63 67
-14.1456 3.43884 29.4136 0.0279173 -0.886671 -0.461557 57 57 60
-13.7827 3.35354 29.2095 0.0184591 -0.889558 -0.456449 82 77 72
-13.5773 3.35794 29.3772 -0.573022 -0.439996 -0.691411 95 91 86
-13.2835 3.33357 29.2245 0.163786 -0.89851 -0.407251 97 90 80
-17.0679 3.74045 28.7155 -0.227926 -0.705408 -0.671155 48 53 62
-17.0599 3.71612 28.7423 -0.387912 -0.322478 -0.863442 50 57 65
-16.999 3.73667 28.6696 -0.54692 -0.369818 -0.751075 48 55 64
-14.4588 3.47888 29.0345 -0.0665245 -0.871912 -0.485123 67 68 74
-13.7898 3.46673 28.9654 -0.535277 -0.471039 -0.701142 126 121 118
-17.6273 3.83988 28.7282 0.263859 -0.863516 -0.429789 40 46 55
-17.2379 3.77429 28.8711 -0.277351 -0.43808 -0.855081 47 53 62
-17.1117 3.79043 28.8111 -0.311021 -0.723965 -0.615744 44 49 56
-17.1033 3.80405 28.7856 -0.352515 -0.685542 -0.636998 42 47 54
-13.7955 3.52945 28.8998 -0.145054 -0.847585 -0.510451 94 91 94
-13.7254 3.47095 28.932 -0.478523 -0.590355 -0.649997 134 129 124
-13.6043 3.48387 28.8566 -0.302625 -0.762582 -0.57174 127 122 117
-17.7152 3.93094 28.6029 -0.363139 -0.4449 -0.818654 45 53 62
-17.0847 3.87756 28.6558 -0.158293 -0.352607 -0.922286 45 50 60
-17.1178 3.87244 28.6744 -0.466413 -0.44006 -0.767337 46 50 60
-16.941 3.84497 28.6076 0.574679 -0.364327 -0.732809 49 55 65
-13.885 3.54706 28.8314 -0.183744 -0.808406 -0.559212 68 69 74
-13.7868 3.58175 28.765 -0.244984 -0.798596 -0.549752 64 63 70
-13.7011 3.53471 28.7996 -0.244243 -0.796669 -0.552868 100 95 96
-13.6079 3.54373 28.7282 -0.246513 -0.799049 -0.548408 106 100 99
-13.5508 3.55006 28.7205 -0.393542 -0.681605 -0.616879 109 103 102
-13.4607 3.51722 28.6922 -0.236629 -0.804117 -0.545347 110 104 103
-17.0118 3.87519 28.6202 0.0109531 -0.654975 -0.755571 44 51 61
-16.936 3.92637 28.574 0.425162 -0.382206 -0.82046 52 59 69
-13.9603 3.66457 28.752 -0.533951 -0.486375 -0.691618 53 56 62
-13.8944 3.61291 28.8233 -0.397792 -0.674855 -0.621556 56 58 65
-13.808 3.64705 28.7533 -0.616765 -0.310786 -0.723196 56 57 64
-13.685 3.62218 28.5452 -0.596477 -0.375952 -0.709137 59 58 65
-13.6979 3.5924 28.7032 -0.246506 -0.799031 -0.548438 68 66 71
-13.5725 3.59421 28.5408 -0.393007 -0.681817 -0.616986 81 77 78
-13.5733 3.59548 28.5414 -0.375878 -0.68442 -0.624728 80 76 77
-13.5276 3.61126 28.5798 -0.473005 -0.589016 -0.65523 80 76 77
-13.5227 3.61211 28.5641 -0.517445 -0.539282 -0.664398 79 75 76
-17.3366 4.00962 28.399 0.113196 -0.85309 -0.509337 51 59 69
-17.3366 4.00944 28.3973 0.200547 -0.803998 -0.559792 50 58 68
-17.3366 4.00944 28.3973 0.200547 -0.803998 -0.559792 50 58 68
-16.8752 3.9267 28.6082 0.6281 -0.254877 -0.735207 51 57 67
-14.1565 3.72198 28.762 0.431921 -0.829989 -0.352934 53 55 60
-13.7309 3.69714 28.5363 -0.596948 -0.373926 -0.709812 55 58 65
-13.6315 3.6349 28.4281 -0.521246 -0.510515 -0.683869 60 59 65
-17.9777 4.12406 28.4928 0.241334 -0.865697 -0.438551 42 49 58
-17.8921 4.10355 28.4069 0.0744614 -0.720794 -0.689138 45 53 61
-14.9319 3.81507 28.2855 -0.342692 -0.604886 -0.718801 53 57 65
-14.9191 3.81657 28.3419 0.572661 -0.754724 -0.320081 53 56 64
-13.662 3.68918 28.4899 -0.597097 -0.375352 -0.708933 57 58 65
-18.067 4.17859 28.423 0.257275 -0.649783 -0.715257 37 45 55
-14.6379 3.83725 28.3816 -0.251989 -0.791325 -0.557052 65 66 72
-13.8321 3.77569 28.3844 -0.0672953 -0.877063 -0.475639 52 57 65
-18.0629 4.27371 28.2831 0.149421 -0.826014 -0.543484 44 51 61
-17.9453 4.21123 28.4401 0.0705835 -0.236452 -0.969076 43 50 60
-17.9048 4.233 28.4492 0.350001 -0.445161 -0.824216 45 52 61
-14.8846 3.92475 28.1506 0.380788 -0.757703 -0.529987 50 55 63
-13.7391 3.84992 28.1632 -0.157544 -0.845862 -0.509605 49 55 62
-13.4333 3.8346 28.3812 -0.152794 -0.592446 -0.790988 68 69 71
-18.0494 4.32152 28.1741 0.733134 -0.621199 -0.276815 41 50 57
-17.865 4.27414 28.4102 0.750757 -0.292873 -0.592106 43 51 60
-15.0647 4.06126 28.2548 0.613927 -0.716686 -0.33084 50 55 63
-15.1837 4.06506 28.5021 0.173031 -0.905402 -0.387695 50 54 62
-14.3181 3.97743 28.3139 0.299955 -0.627101 -0.718868 47 49 54
-13.7529 3.91829 28.1059 0.254781 -0.766554 -0.589476 49 54 62
-13.5374 3.89405 27.947 0.0265446 -0.883968 -0.466794 50 55 62
-13.3658 3.8582 28.3393 0.353487 -0.858766 -0.370902 71 71 72
-13.1851 3.84799 27.8851 -0.246696 -0.804982 -0.539578 77 78 80
-13.1825 3.8439 27.8364 -0.560218 -0.472768 -0.680181 77 77 80
-13.193 3.85074 27.9133 -0.229024 -0.815091 -0.532142 77 78 80
-13.193 3.85074 27.9133 -0.229024 -0.815091 -0.532142 77 78 80
-15.1809 4.11227 28.3716 0.202963 -0.901313 -0.382677 49 54 63
-13.3518 3.88994 28.0548 0.0579665 -0.90362 -0.424394 69 71 72
-13.2098 3.90715 27.8652 0.169407 -0.775662 -0.607989 80 80 82
-17.4551 4.38396 28.2836 0.468866 -0.723654 -0.506448 44 50 60
-17.4523 4.35699 28.3018 0.792399 -0.301795 -0.530117 45 50 60
-14.8664 4.1079 28.0199 -0.344691 -0.72338 -0.598255 56 59 67
-13.7175 4.00228 28.0006 0.305892 -0.787981 -0.534337 47 52 60
-17.3842 4.4414 28.2672 0.468798 -0.723689 -0.506461 46 50 61
-14.8639 4.16083 27.9555 -0.248985 -0.794561 -0.553786 58 61 68
-14.7103 4.16363 27.8528 -0.39247 -0.676768 -0.622859 58 61 68
-14.6433 4.17855 27.8429 -0.128484 -0.846794 -0.51617 64 66 72
-14.0399 4.10718 27.783 -0.307261 -0.760902 -0.571507 54 57 63
-13.8718 4.08141 27.8485 0.22493 -0.696973 -0.680907 59 62 70
-13.4101 4.05641 27.9195 -0.336516 -0.613688 -0.714244 51 56 61
-13.2474 4.027 27.5984 -0.651013 -0.134085 -0.74713 58 61 66
-13.3092 4.04733 27.8037 -0.436695 -0.588074 -0.680784 57 60 66
-13.1287 3.97504 27.5837 -0.574346 -0.322604 -0.752365 78 78 80
-17.4358 4.50864 28.3322 0.889152 -0.339826 -0.306475 46 50 61
-14.9011 4.21827 27.875 0.143684 -0.908827 -0.391648 59 62 70
-14.9011 4.21827 27.875 0.143684 -0.908827 -0.391648 59 62 70
-14.3597 4.20667 27.941 0.512325 -0.683903 -0.519423 50 55 61
-14.1635 4.17304 27.7193 0.199615 -0.895865 -0.396964 51 56 62
-14.0115 4.13417 27.6654 0.00472238 -0.896814 -0.442382 55 58 65
-13.9576 4.17291 27.6786 0.196435 -0.646343 -0.737329 57 60 67
-13.885 4.14194 27.7753 0.462906 -0.684153 -0.563606 60 62 70
-13.9079 4.14624 27.9101 0.0139282 -0.899551 -0.436594 60 63 70
-13.0747 4.03195 27.4359 -0.577795 -0.438084 -0.688647 73 73 74
-14.8799 4.3069 27.7253 0.122691 -0.869249 -0.478908 53 57 66
-14.7476 4.25249 27.7251 0.147311 -0.910181 -0.387131 50 54 61
-14.5788 4.28331 27.7718 -0.125276 -0.859814 -0.495 40 43 49
-14.3397 4.25253 27.5562 0.18159 -0.896482 -0.404161 50 54 61
-13.2195 4.14481 27.5363 -0.583434 -0.217281 -0.782556 54 56 62
-13.101 4.1153 27.3855 -0.634599 -0.262831 -0.726777 63 64 68
-12.9959 4.06651 27.3174 -0.225637 -0.820555 -0.525146 70 70 72
-14.8809 4.37041 27.7554 0.45723 -0.789638 -0.40916 51 55 64
-13.897 4.24179 27.5996 -0.413599 -0.666416 -0.620343 62 65 73
-12.9939 4.12271 27.2172 -0.224961 -0.820844 -0.524984 65 65 69
-13.1404 4.20403 27.3942 -0.634135 -0.258124 -0.728866 54 56 63
-12.9933 4.17121 27.1088 0.0695901 -0.904238 -0.421321 58 60 65
-12.9072 4.21148 27.1368 0.623143 -0.709385 -0.329341 55 56 60
-15.2977 4.52814 27.5035 0.549624 -0.728613 -0.408701 49 55 65
-15.2379 4.51698 27.5174 0.468812 -0.602389 -0.646022 53 57 66
-13.9313 4.34298 27.4442 -0.585747 -0.39287 -0.70891 53 57 64
-13.7099 4.37507 27.4472 0.780446 -0.596916 -0.186001 48 54 58
-13.6007 4.34053 27.6086 -0.580654 -0.420821 -0.696958 49 54 62
-12.9854 4.21552 26.9627 -0.125418 -0.866849 -0.482539 53 56 62
-15.2361 4.56157 27.3673 0.492291 -0.766076 -0.413252 51 56 66
-13.4562 4.3508 27.177 -0.527618 -0.527897 -0.665541 50 54 64
-13.5597 4.38735 27.4915 -0.550585 -0.348467 -0.758569 51 55 64
-15.3539 4.63146 26.9335 0.65123 -0.699537 -0.29419 50 53 62
-13.591 4.46398 27.3355 -0.293295 -0.779976 -0.552825 59 63 70
-13.5131 4.41772 27.2815 -0.374668 -0.715863 -0.589206 52 56 65
-11.5905 4.27005 27.5929 0.0839386 -0.900043 -0.427642 154 147 128
-11.4886 4.29218 27.5232 -0.324981 -0.632915 -0.702713 157 150 131
-17.7254 4.90488 26.6515 0.764928 -0.418688 -0.489475 46 53 63
-15.0889 4.65962 27.207 -0.120923 -0.864368 -0.488103 51 56 66
-15.1068 4.70491 27.2047 0.631721 -0.581668 -0.512437 49 55 64
-11.5134 4.3548 27.3739 -0.417292 -0.535633 -0.734142 161 154 135
-16.693 4.90288 26.5175 0.796975 0.465629 -0.384735 46 53 63
-16.6828 4.90261 26.482 0.729713 -0.564193 -0.386272 47 54 64
-15.9537 4.67171 25.0457 0.807184 -0.457435 -0.373105 47 55 64
-15.3381 4.77337 27.0042 0.733135 -0.438564 -0.519784 49 57 65
-14.7985 4.74908 27.0457 0.216124 -0.70893 -0.671348 49 55 64
-13.6453 4.62588 27.2156 0.45237 -0.763122 -0.461525 90 90 90
-16.6905 4.9552 26.4366 0.736281 -0.527972 -0.423243 50 57 67
-16.0036 4.75319 25.1969 0.83006 -0.412134 -0.375694 50 57 67
-15.1226 4.84782 26.8715 0.488727 -0.800556 -0.346779 50 57 65
-13.2822 4.68183 27.1414 0.922979 -0.234995 -0.304775 51 54 59
-17.5446 5.08494 26.5966 -0.142855 -0.745524 -0.650989 48 54 64
-15.1205 4.897 26.7763 -0.10462 -0.842477 -0.528476 48 57 65
-16.3564 5.02139 25.9136 0.750557 -0.386365 -0.536084 50 56 65
-15.8389 4.91545 25.6805 0.888915 0.270205 -0.36989 50 56 66
-15.9356 4.96711 26.2641 0.739097 -0.539964 -0.402709 48 54 64
-15.7903 4.98027 26.3047 0.66922 -0.563149 -0.484776 50 57 68
-14.9969 4.89146 26.5621 0.10182 -0.878409 -0.466937 46 53 62
-17.4644 5.22139 26.3939 -0.491297 -0.465593 -0.736105 49 56 66
-17.3778 5.19138 26.2797 0.349194 -0.872726 -0.341192 47 54 65
-17.3164 5.19085 26.2662 0.413762 -0.845809 -0.336762 49 56 66
-17.3522 5.21366 26.3987 0.413146 -0.817059 -0.40215 51 58 69
-17.2465 5.2116 26.3322 0.685607 -0.679845 -0.260296 50 58 68
-16.2576 5.00306 25.7011 0.799087 -0.516089 -0.308402 50 57 67
-15.354 5.02403 26.6009 -0.191774 -0.833821 -0.517653 51 55 67
-15.3486 5.04012 27.042 -0.490482 -0.552571 -0.673864 49 54 63
-15.0064 4.94697 26.5358 -0.246045 -0.720277 -0.648585 45 52 61
-14.9165 4.94554 26.3696 -0.246855 -0.720184 -0.64838 46 52 61
-14.3652 4.92783 26.8251 0.80493 -0.460028 -0.374783 48 53 62
-17.2135 5.17197 25.304 -0.258662 -0.772145 -0.580418 49 56 67
-17.5789 5.2387 26.0303 -0.477236 -0.506334 -0.718242 48 55 67
-17.3044 5.19663 25.52 0.407282 -0.83468 -0.370716 49 56 67
-17.3074 5.21061 25.6163 0.33168 -0.868855 -0.367532 50 56 67
-17.3508 5.24887 26.1831 -0.18383 -0.800812 -0.570006 51 58 69
-17.2296 5.2102 26.0126 0.530268 -0.80382 -0.26961 49 57 67
-17.2297 5.24385 26.2175 0.416455 -0.828367 -0.374664 51 60 71
-17.2297 5.24385 26.2175 0.416455 -0.828367 -0.374664 51 60 71
-17.155 5.22756 26.031 0.720192 -0.587909 -0.368356 50 59 69
-16.2927 5.09067 25.8641 0.760385 -0.55247 -0.341454 50 57 67
-16.2742 5.1184 25.7496 0.759532 -0.591814 -0.269938 50 56 66
-14.7391 4.96585 26.4352 0.62217 -0.696867 -0.356764 42 48 56
-14.5495 4.98862 26.3814 0.22891 -0.903512 -0.362307 48 56 66
-14.5502 4.99611 26.3641 0.246809 -0.90055 -0.357905 48 54 63
-14.5493 4.99802 26.4337 0.275143 -0.8216 -0.499269 49 56 66
-14.4282 4.97354 26.248 -0.10227 -0.86997 -0.482382 45 55 63
-14.4666 4.98572 26.4317 0.704782 -0.621379 -0.342302 46 54 63
-13.912 4.96824 26.837 -0.500671 -0.568661 -0.652651 49 53 61
-13.7446 4.91139 26.7928 -0.54134 -0.500478 -0.675628 48 53 62
-13.8029 4.95215 26.9622 -0.136306 -0.814053 -0.56457 46 52 61
-13.6777 4.91314 26.7302 -0.54029 -0.502412 -0.675033 52 56 65
-17.2471 5.23441 25.3922 0.439025 -0.763821 -0.473111 45 52 63
-17.2286 5.27683 25.7013 0.517754 -0.768267 -0.376426 45 52 63
-17.1766 5.27578 25.8798 -0.00769521 -0.899632 -0.436581 47 54 65
-17.2223 5.25048 25.8742 0.0467857 -0.829615 -0.556372 50 57 68
-17.0438 5.26296 25.7395 0.117259 -0.690899 -0.713378 44 51 61
-17.1324 5.24778 25.8461 0.382369 -0.84527 -0.373247 47 55 65
-17.1699 5.24094 25.8924 0.177215 -0.912903 -0.3677 49 57 68
-17.0471 5.22207 25.8462 0.04674 -0.836308 -0.546264 49 57 67
-16.279 5.15308 25.5792 0.937369 0.112784 -0.329573 52 58 67
-16.2189 5.13773 25.7006 0.710012 -0.629717 -0.315182 52 58 70
-14.3661 4.91394 25.3021 -0.565105 -0.409357 -0.716298 48 56 65
-14.3446 4.99414 26.2277 0.344535 -0.873131 -0.344873 48 53 63
-14.4102 5.00303 26.5088 0.743388 -0.636111 -0.206731 46 53 62
-14.4327 5.06052 26.8495 0.786211 -0.550813 -0.280139 48 54 63
-14.1256 4.99636 26.4259 0.750777 -0.559946 -0.350421 46 54 62
-13.7109 4.98 26.5522 -0.520302 -0.540571 -0.661112 50 55 63
-13.633 4.97433 26.5896 -0.495846 -0.581033 -0.645397 51 55 64
-13.5386 4.96426 26.4749 -0.346162 -0.613858 -0.709472 52 59 67
-12.7664 4.87788 26.8525 -0.341083 -0.631218 -0.696582 61 63 67
-17.18 5.26319 25.5244 0.406899 -0.842393 -0.353281 46 52 64
-17.1059 5.27831 25.5301 0.698748 -0.633867 -0.331608 44 50 62
-17.1043 5.28348 25.714 0.726614 -0.554618 -0.405501 43 51 62
-16.7382 5.2633 25.5774 0.0507762 -0.911144 -0.408948 49 56 67
-16.2616 5.20714 25.6842 0.944346 0.0584188 -0.323724 51 57 68
-16.2352 5.23791 25.7489 0.810154 -0.511637 -0.286144 52 58 69
-15.9469 5.26679 26.3854 0.856156 0.371157 -0.359499 52 58 68
-15.9282 5.25641 26.3563 0.877788 0.32868 -0.348507 52 58 69
-14.4247 4.96421 25.3254 -0.371487 0.52821 -0.763539 48 57 66
-14.3517 4.97272 25.2621 -0.56561 -0.409369 -0.715893 50 56 66
-14.3296 4.98219 25.3109 -0.565409 -0.411657 -0.714739 51 56 67
-14.3169 4.98153 25.3013 -0.565812 -0.410899 -0.714856 51 58 68
-14.3663 5.02333 26.1622 0.758631 -0.572381 -0.311222 49 54 65
-14.3155 5.06778 26.3491 0.355895 -0.869761 -0.341841 51 56 66
-13.6471 4.97788 26.383 -0.369041 -0.725674 -0.580694 52 56 64
-13.5407 4.97816 26.4342 -0.540105 -0.327141 -0.775413 52 58 66
-13.5494 4.98124 26.458 -0.437386 -0.591177 -0.677645 52 58 66
-13.5477 4.96983 26.4901 -0.360565 -0.686729 -0.631186 52 58 65
-16.6489 5.28456 25.5263 0.00121916 -0.902906 -0.429837 43 50 62
-16.1829 5.26348 25.8216 0.825369 -0.473871 -0.30694 52 58 69
-16.0044 5.31853 26.3687 0.542394 0.684305 -0.487376 51 58 67
-15.8987 5.30415 26.2743 0.740695 0.530574 -0.412143 51 58 67
-15.8777 5.29252 26.253 0.797785 0.460641 -0.389036 52 58 68
-14.9859 5.16045 25.915 0.137853 -0.857096 -0.49637 46 52 63
-14.3754 5.0439 25.3147 -0.565066 -0.411973 -0.714828 52 62 70
-14.3722 5.05627 25.3054 -0.565652 -0.410709 -0.715092 52 61 69
-14.086 5.0592 25.8081 0.768578 -0.619798 -0.158553 49 54 63
-13.7369 5.05714 26.1189 0.743875 -0.552797 -0.375588 55 59 67
-13.7491 5.06647 26.105 0.716464 -0.590141 -0.372039 55 58 66
-13.7449 5.0619 26.0059 0.872555 -0.307607 -0.379507 55 58 67
-13.7444 5.06135 26.0018 0.873177 -0.301193 -0.383204 55 58 67
-13.6597 5.04366 26.0216 0.642067 -0.665037 -0.381413 60 63 71
-13.5302 5.05888 26.2045 0.0403405 -0.912507 -0.407067 57 62 69
-16.1929 5.34119 25.5812 0.831553 -0.476169 -0.285977 43 50 62
-14.9216 5.18116 25.8239 0.150807 -0.920626 -0.360146 41 48 59
-14.361 5.10233 25.2717 -0.542455 0.26336 -0.797737 53 61 69
-13.7289 5.11354 25.9588 0.640952 -0.664369 -0.384441 57 60 70
-13.7535 5.11952 25.9677 0.871318 -0.296047 -0.391358 55 59 69
-13.7539 5.12002 25.9713 0.878633 -0.271677 -0.392676 55 58 68
-13.5533 5.06678 26.1882 0.905682 -0.0669722 -0.418635 58 63 70
-13.5128 5.10541 26.2818 0.0698023 -0.918359 -0.389544 55 60 68
-13.3134 5.05284 26.0601 0.238676 -0.844495 -0.47944 51 56 66
-12.6195 5.00561 26.0298 0.151906 -0.916914 -0.369043 53 56 65
-15.2949 5.28368 25.3804 -0.0292797 -0.859994 -0.509463 48 55 66
-14.9678 5.24971 25.7093 -0.230522 -0.817634 -0.527575 48 55 66
-14.915 5.25421 25.7188 -0.106803 -0.877726 -0.467109 46 53 64
-14.2871 5.11504 25.2246 -0.542841 0.263532 -0.797417 52 59 69
-13.6683 5.11812 26.0146 0.600129 -0.711112 -0.366285 60 64 72
-13.5317 5.11067 26.0225 0.644769 -0.669748 -0.368389 58 62 70
-13.5005 5.14074 26.0642 -0.0260492 -0.903036 -0.428774 56 60 68
-13.4077 5.11371 26.095 -0.212114 -0.259727 -0.942099 52 57 67
-12.869 5.0732 26.2116 -0.123104 -0.826264 -0.549666 51 55 62
-12.7359 5.04005 25.797 -0.615095 -0.35081 -0.70611 52 57 64
-12.7492 5.05289 25.8906 -0.401809 -0.706392 -0.582718 52 57 64
-12.7492 5.05289 25.8906 -0.401809 -0.706392 -0.582718 52 57 64
-16.0852 5.37669 25.2547 0.243887 -0.905573 -0.347069 41 48 59
-15.4515 5.33336 25.1628 0.651165 -0.6698 -0.356863 44 52 63
-15.3456 5.29643 25.0857 0.0419513 -0.914808 -0.401705 48 54 66
-14.8918 5.33643 25.6957 -0.292597 -0.764527 -0.574357 49 57 65
-14.6831 5.26847 25.5159 0.492741 -0.805167 -0.330019 52 60 70
-14.6831 5.26847 25.5159 0.492741 -0.805167 -0.330019 52 60 70
-14.3221 5.18057 25.2699 -0.541485 0.265953 -0.797536 53 61 71
-14.2852 5.20569 25.2631 0.75684 -0.586799 -0.287855 52 59 69
-13.52 5.16943 25.9636 0.624011 -0.69783 -0.351631 56 59 68
-13.1649 5.11706 25.3575 0.705693 -0.627706 -0.328608 55 60 71
-12.5491 5.12017 26.2778 0.0648834 -0.903962 -0.422662 67 69 73
-15.4327 5.38357 25.0506 0.588852 -0.745844 -0.3114 40 48 60
-15.4267 5.36778 25.0149 0.592437 -0.74121 -0.315637 41 49 60
-15.4655 5.37034 25.0701 -0.279515 -0.698136 -0.659149 43 51 63
-15.4122 5.3748 25.0892 -0.27626 -0.519372 -0.808662 42 50 61
-15.0434 5.32935 24.9332 0.318791 -0.891484 -0.321914 41 48 60
-14.2852 5.25461 25.2686 -0.541475 0.265993 -0.797529 52 61 70
-15.4068 5.43362 24.9033 0.256644 -0.498275 -0.828164 43 50 61
-15.3234 5.38839 24.9416 -0.541756 -0.430551 -0.721891 37 44 58
-14.9448 5.36479 25.1653 0.180768 -0.864978 -0.46812 40 45 59
-14.4386 5.29616 24.7544 0.920175 0.0427114 -0.389171 49 57 66
-11.389 5.1214 26.1584 -0.191579 -0.796669 -0.57325 67 66 73
-15.3459 5.43124 24.8957 0.119656 -0.426434 -0.896569 40 47 59
-15.2898 5.43391 24.9208 0.20541 -0.33103 -0.920992 40 47 60
-15.2559 5.42744 24.8553 0.559562 -0.692309 -0.455629 42 48 62
-14.9646 5.4087 24.7244 0.664995 -0.676301 -0.316857 37 45 58
-13.1264 5.25332 25.2217 0.747236 -0.596395 -0.293173 56 60 69
-13.1264 5.25332 25.2217 0.747236 -0.596395 -0.293173 56 60 69
-13.0479 5.24967 25.1049 0.78849 -0.539768 -0.294846 56 60 67
-13.0449 5.25402 25.1193 0.786351 -0.521226 -0.331626 58 61 69
-14.9433 5.42856 24.7062 0.626375 -0.724217 -0.288381 40 48 61
-14.8841 5.44003 24.7736 0.223262 -0.675711 -0.702545 41 49 62
-13.0505 5.26755 25.1743 0.785194 -0.523101 -0.331414 58 61 68
-12.9548 5.30186 25.2936 -0.197353 -0.849429 -0.48941 60 61 69
-12.8966 5.30578 25.251 -0.315077 -0.779928 -0.540777 59 61 68
-12.8861 5.3289 25.5119 -0.288922 -0.7827 -0.551275 58 61 68
-12.7626 5.31459 25.6986 -0.276587 -0.806708 -0.522229 55 60 68
-12.7183 5.29757 25.658 0.422768 -0.845963 -0.324983 54 60 68
-14.614 5.48315 24.9389 0.918177 0.193801 -0.345533 43 51 62
-12.9549 5.33276 25.1402 -0.0302771 -0.906418 -0.421295 52 54 63
-12.8974 5.36665 25.1961 0.0824676 -0.875696 -0.475768 45 53 58
-12.9036 5.32327 25.2954 -0.147014 -0.872784 -0.465441 58 60 68
-12.6738 5.317 25.1709 -0.0647245 -0.899802 -0.431471 57 60 68
-12.6983 5.3134 25.1753 -0.240538 -0.827889 -0.506696 57 60 68
-12.6301 5.27836 25.0496 -0.512551 -0.574663 -0.638007 57 61 68
-12.6092 5.3207 25.1431 -0.394833 -0.715663 -0.576136 57 61 68
-12.5494 5.2742 24.9106 -0.563066 -0.483931 -0.669901 57 62 69
-14.8326 5.51454 24.2815 0.439793 -0.745835 -0.500312 45 52 64
-12.7557 5.34772 25.0676 0.0929538 0.778168 -0.621139 51 54 63
-12.9393 5.43518 25.0126 -0.37414 -0.591339 -0.714379 45 50 61
-12.9425 5.42473 25.0434 -0.438858 -0.455231 -0.774705 44 50 60
-12.8075 5.428 24.985 -0.456753 -0.415896 -0.786389 44 50 59
-12.6377 5.39211 24.861 0.10235 -0.913785 -0.393093 42 49 58
-12.6715 5.402 24.9592 -0.378383 -0.589075 -0.714015 44 49 59
-12.6074 5.42904 24.7047 0.0815248 -0.910832 -0.404647 44 51 61
-28.5698 -18.6153 70.8432 0.0698834 0.403453 -0.912328 46 38 50
-28.0905 -18.4289 70.7938 -0.326101 -0.00851202 -0.945297 29 21 33
-28.0371 -18.3781 70.7563 -0.25159 0.0734867 -0.96504 29 21 33
-28.2713 -18.2072 71.281 -0.644071 0.401597 -0.65107 31 25 33
-24.2022 -11.6693 49.3721 -0.554212 -0.258461 -0.791232 48 43 48
-25.2944 -12.0004 51.594 0.848503 0.492385 -0.193905 59 57 60
-24.8712 -11.8487 50.8207 -0.559272 -0.245982 -0.791649 57 55 58
-24.4732 -11.7214 49.8874 -0.554369 -0.258206 -0.791204 55 53 55
-24.3037 -11.5757 49.2842 -0.542696 -0.280515 -0.791702 53 52 54
-24.1497 -11.595 49.1717 -0.543677 -0.280795 -0.790929 53 50 52
-22.0661 -11.3851 48.5134 0.781396 0.24479 -0.57402 44 44 45
-24.9031 -11.7253 50.5251 -0.586084 -0.18072 -0.789839 77 76 77
-24.3711 -11.4446 49.2833 -0.542648 -0.28045 -0.791758 95 97 94
-24.4391 -11.3139 49.2845 -0.542705 -0.280688 -0.791635 193 195 190
-16.5423 -8.90056 38.9367 -0.698375 0.109252 -0.707345 66 67 65
-16.5419 -8.81579 39.0092 -0.698305 0.101464 -0.708573 63 64 65
-16.5503 -8.83462 39.0086 -0.698393 0.111144 -0.707032 62 64 64
-16.5419 -8.81579 39.0092 -0.698305 0.101464 -0.708573 65 67 66
-16.6424 -8.71475 39.1705 -0.684828 0.116335 -0.719358 52 54 52
-16.6424 -8.71475 39.1705 -0.684828 0.116335 -0.719358 52 54 52
-16.6091 -8.78071 39.1337 -0.696931 0.0854024 -0.712035 59 61 59
-16.5306 -8.73708 39.0098 -0.698726 0.113606 -0.706311 62 65 62
-16.628 -8.70837 39.1405 -0.697238 0.114805 -0.707587 54 56 53
-16.4976 -8.71862 39.0364 -0.698426 0.138654 -0.702123 68 70 67
-16.4561 -8.69848 39.0782 -0.693901 0.219609 -0.685765 86 87 84
-22.6148 -10.5885 50.732 -0.0520815 0.650776 -0.757482 83 85 91
-16.6306 -8.62562 39.1389 -0.660601 0.0892786 -0.74541 54 54 52
-16.6033 -8.65218 39.1836 -0.672442 0.0608471 -0.737644 60 60 56
-16.613 -8.70664 39.2189 -0.641396 0.153038 -0.751792 56 58 54
-16.6246 -8.63411 39.1554 -0.66398 0.0805161 -0.743402 57 58 55
-16.6084 -8.70307 39.2224 -0.645341 0.14733 -0.749553 57 58 54
-16.6198 -8.63045 39.1567 -0.664845 0.0798278 -0.742704 58 59 56
-16.6084 -8.70307 39.2224 -0.645341 0.14733 -0.749553 57 58 54
-16.5187 -8.65904 39.0127 -0.697289 0.0743694 -0.712921 65 67 62
-16.6198 -8.63045 39.1567 -0.664845 0.0798278 -0.742704 58 59 56
-16.6019 -8.6984 39.2181 -0.641732 0.117141 -0.75793 58 60 55
-16.6071 -8.63807 39.211 -0.693168 0.0249038 -0.720346 60 61 57
-16.6037 -8.69538 39.2121 -0.652993 0.102076 -0.750454 58 60 55
-22.5749 -10.4836 50.6829 -0.20895 0.808326 -0.550409 73 77 80
-16.641 -8.58349 39.1663 -0.693898 0.0385091 -0.719043 55 56 54
-16.5732 -8.59795 39.1985 -0.608332 0.0894905 -0.788621 63 65 60
-16.5249 -8.57392 39.2262 -0.609585 0.0911983 -0.787457 57 59 57
-22.5173 -10.3739 50.6254 -0.295135 0.811996 -0.503545 68 75 75
-22.4556 -10.4142 50.4346 -0.583372 0.325011 -0.744342 67 73 72
-22.3902 -10.3785 50.351 -0.132519 0.403013 -0.905549 65 72 70
-22.3971 -10.38 50.3991 -0.261345 0.377051 -0.888556 61 67 65
-22.4073 -10.4143 50.478 -0.585849 0.283997 -0.759031 64 71 68
-22.3695 -10.4106 50.4563 -0.325532 0.55526 -0.76532 58 64 63
-22.3481 -10.402 50.49 -0.202045 0.778853 -0.593773 56 65 60
-22.2043 -10.3397 50.0246 -0.668409 0.181316 -0.721356 55 59 62
-16.6186 -8.52842 39.1434 -0.627315 0.0271994 -0.77829 55 55 53
-22.5211 -10.3024 50.7777 -0.47048 0.551166 -0.689104 60 66 66
-22.4474 -10.3344 50.5352 -0.573898 0.278893 -0.769974 56 64 62
-22.3988 -10.3327 50.5685 -0.549574 0.25974 -0.794043 54 61 60
-22.3757 -10.2662 50.7366 -0.480897 0.657454 -0.58008 46 52 53
-22.1799 -10.2526 50.5949 -0.32494 0.799726 -0.50483 42 45 51
-22.7131 -10.2289 51.725 0.858347 0.0546314 -0.510153 42 44 50
-23.9565 -7.83015 41.01 -0.479662 0.41199 -0.774719 33 35 29
-23.9376 -7.70341 40.9387 -0.397079 0.511862 -0.761791 47 47 44
-24.0063 -7.74518 41.0223 -0.358623 0.584797 -0.7276 25 23 23
-23.8627 -7.72575 40.8995 -0.334167 0.609573 -0.718855 34 34 33
-23.8883 -7.74032 40.9509 -0.423254 0.552491 -0.71806 38 39 36
-23.4819 -7.5699 40.9084 0.221973 0.749982 -0.623101 76 78 57
-23.2507 -10.7643 64.9319 -0.53725 0.40055 -0.742241 104 109 60
-24.0528 -7.29729 44.1826 -0.567738 -0.220238 -0.793202 51 58 35
-24.0473 -7.24884 44.406 -0.568161 -0.222792 -0.792185 34 37 28
-23.6898 -10.5571 69.4146 -0.502557 -0.000240507 -0.864544 77 91 48
-24.1117 -10.8345 71.009 -0.678498 -0.141106 -0.720923 85 98 55
-24.4927 -7.3114 46.7099 -0.505916 -0.367463 -0.780397 34 32 26
-24.2976 -10.5395 71.7525 0.0126724 0.460361 -0.887642 47 58 33
-19.3035 -5.83309 36.1168 0.830666 -0.0890196 -0.549609 29 42 47
-19.1203 -5.95397 36.5238 -0.535245 0.049342 -0.843255 12 61 107
-18.8664 -5.90841 36.3855 -0.601879 -0.0781358 -0.794756 8 66 116
-25.4988 -10.6624 74.4941 -0.686238 0.26843 -0.676035 39 47 29
-25.2655 -10.7589 75.0087 -0.501924 -0.485388 -0.71587 35 44 28
-19.118 -5.88583 36.587 0.302187 0.0233134 -0.952964 12 53 94
-19.0686 -5.81958 36.5919 0.27653 -0.321549 -0.905614 15 55 95
-29.0971 -10.7281 75.7125 0.0977173 -0.797807 -0.594942 30 37 27
-28.9594 -10.7284 75.7476 0.100601 -0.797438 -0.594956 30 37 28
-24.2186 -10.272 72.2319 -0.649745 -0.239707 -0.721368 48 60 37
-25.4708 -10.4257 74.3794 -0.548723 0.0222625 -0.835708 52 62 41
-25.4932 -10.4972 74.4464 -0.580836 0.0131678 -0.813914 49 59 39
-25.4265 -10.4621 74.4494 -0.663246 -0.010807 -0.748323 53 62 40
-25.1292 -10.3961 74.2457 -0.557913 -0.410944 -0.721012 55 69 39
-24.9615 -10.3776 74.088 -0.00508879 -0.775243 -0.631643 52 66 34
-24.3613 -10.1931 72.3879 -0.6931 -0.0871497 -0.715554 50 63 35
-18.7287 -5.6948 36.4596 -0.596113 0.30667 -0.742027 8 66 117
-18.5951 -5.71312 36.367 -0.195831 0.608711 -0.768844 29 80 124
-28.9123 -10.4355 75.4188 0.748658 -0.489705 -0.446878 26 31 26
-25.4946 -10.2635 74.3418 -0.350746 0.040266 -0.935605 39 49 31
-24.9974 -10.1817 73.818 -0.706164 0.0234068 -0.707661 61 76 42
-24.6618 -10.198 73.248 0.895949 -0.156881 -0.415528 62 78 42
-24.6015 -10.1651 72.9858 -0.695648 -0.0734855 -0.714614 62 76 40
-24.6618 -10.198 73.248 0.895949 -0.156881 -0.415528 62 78 42
-24.2688 -10.0918 72.3553 -0.695584 -0.0812482 -0.713836 59 73 39
-25.5529 -10.0686 73.4288 0.491564 -0.716219 -0.495374 32 39 27
-25.4475 -10.2332 74.3864 -0.676535 0.0864329 -0.731321 41 50 31
-25.2123 -10.1043 74.268 -0.268595 0.824823 -0.497518 41 55 29
-25.2248 -10.1093 74.3246 -0.28084 0.817485 -0.50284 41 55 29
-25.1972 -10.1076 74.3043 -0.430016 0.712455 -0.554521 42 57 29
-25.1994 -10.1034 74.3405 -0.59076 0.517469 -0.619055 42 57 28
-24.8903 -10.1611 73.8152 -0.697718 -0.0584688 -0.713983 65 81 45
-24.6225 -9.96551 72.9857 -0.695614 -0.0734575 -0.714651 66 85 44
-24.6225 -9.96551 72.9857 -0.695614 -0.0734575 -0.714651 66 85 44
-24.4885 -10.0523 72.8642 -0.695631 -0.0735073 -0.714629 68 86 47
-19.0413 -5.49948 36.2773 0.575487 -0.34556 -0.741217 11 61 109
-18.4357 -5.53596 36.398 -0.575479 -0.0705544 -0.814768 30 96 153
-18.2122 -5.69787 37.468 0.923489 0.277912 -0.26445 29 31 25
-25.1956 -9.90634 72.7923 -0.660591 0.357146 -0.660353 36 46 31
-25.3839 -10.0791 74.3035 -0.623176 0.454103 -0.636744 40 50 30
-24.6567 -9.84659 72.8484 -0.706461 0.0150653 -0.707591 49 66 31
-24.6553 -9.89196 72.7815 -0.704637 0.10818 -0.701273 55 73 36
-24.6567 -9.84659 72.8484 -0.706461 0.0150653 -0.707591 49 67 31
-24.4027 -9.78359 72.3858 0.11116 -0.802924 -0.585625 62 78 39
-24.5142 -9.80861 72.6269 -0.693505 -0.0461048 -0.718975 57 75 37
-24.4027 -9.78359 72.3858 0.11116 -0.802924 -0.585625 62 78 39
-23.8752 -9.63616 71.3388 0.129979 -0.683255 -0.718518 63 77 41
-24.1616 -9.83303 72.3254 -0.176086 -0.63611 -0.751238 65 82 45
-24.1496 -9.82272 72.2658 -0.112651 -0.625699 -0.771888 65 82 45
-19.068 -5.42915 36.2221 0.566919 -0.362173 -0.739888 6 66 119
-25.0333 -9.84583 73.4639 -0.652687 0.383503 -0.653395 48 63 34
-23.9874 -9.57219 71.2274 0.061535 -0.7815 -0.620863 67 81 43
-23.9012 -9.5089 71.2207 -0.00566632 -0.78987 -0.613248 75 89 49
-24.5305 -9.4433 71.9701 -0.0565031 -0.779242 -0.62417 65 81 42
-24.7419 -9.58438 72.4653 -0.538151 0.312455 -0.782793 61 77 39
-24.3215 -9.53145 72.0747 -0.0565316 -0.778888 -0.62461 71 88 47
-24.0007 -9.34594 70.6272 0.373938 0.844326 -0.383775 77 90 49
-24.0299 -9.44741 71.2612 -0.445494 -0.375369 -0.812793 80 93 51
-23.9084 -9.39265 70.834 0.329713 0.862358 -0.384225 80 94 53
-23.8669 -9.33912 70.876 -0.383053 -0.613328 -0.690724 88 103 59
-24.7233 -9.12145 70.2339 0.186488 0.723115 -0.665077 58 69 44
-24.4415 -9.19983 70.5181 -0.218384 -0.717886 -0.66102 66 80 45
-24.0593 -9.04399 69.3551 0.141717 -0.797314 -0.586691 67 81 45
-24.096 -9.08825 69.8511 0.228822 -0.795115 -0.561635 68 80 47
-18.2824 -5.34181 37.6545 0.827878 0.25855 -0.497765 28 32 30
-18.2931 -5.34806 37.6744 0.923211 0.0294871 -0.38316 29 35 34
-24.5602 -9.05443 70.1325 -0.0790357 -0.616764 -0.78317 52 64 38
-24.3898 -8.9837 69.9972 -0.121969 -0.703534 -0.700117 47 58 34
-24.0189 -8.86857 69.002 -0.107603 -0.533475 -0.838943 55 67 38
-23.4559 -9.04222 69.9029 -0.312365 -0.320028 -0.894433 59 71 38
-18.9195 -5.21557 36.9711 0.861242 -0.146841 -0.486519 11 60 104
-18.2538 -5.24945 37.4698 0.920513 -0.138794 -0.365229 23 27 29
-23.99 -8.50792 66.6979 0.835496 0.286026 -0.469185 40 48 33
-24.2562 -8.76371 69.1768 -0.295861 -0.674921 -0.67598 40 48 31
-24.2187 -8.7699 69.0929 -0.39531 -0.599567 -0.69588 41 48 30
-23.896 -8.25481 65.8506 0.317108 0.874148 -0.367842 34 38 31
-23.8741 -8.30183 66.2413 0.712678 0.639914 -0.287403 36 41 32
-23.8768 -8.30733 66.5137 0.514616 0.762506 -0.392115 39 44 33
-23.7866 -8.36647 66.6895 0.662268 0.688947 -0.294539 41 44 36
-24.1961 -8.0851 65.7688 0.843022 0.341581 -0.415496 31 35 29
-23.063 -8.14823 65.9395 -0.564823 0.496721 -0.658971 59 67 49
-23.063 -8.14823 65.9395 -0.564823 0.496721 -0.658971 59 67 49
-18.3639 -4.92262 36.7797 0.878773 0.236775 -0.414361 19 72 116
-18.3597 -4.92259 36.7786 0.911866 0.111761 -0.394981 18 71 115
-24.2868 -7.99932 65.3086 0.869212 0.258282 -0.421618 28 34 26
-24.0707 -8.0178 66.0129 0.812792 0.461367 -0.355681 29 35 29
-23.0492 -8.13637 66.0188 0.130584 -0.803688 -0.580546 53 61 44
-24.3184 -7.84475 66.3175 0.808604 0.422836 -0.409108 25 32 25
-24.2757 -7.8493 66.2883 0.81123 0.417013 -0.409886 26 32 26
-17.6258 -4.82483 37.3534 -0.506056 -0.280669 -0.815556 93 104 57
-18.7786 -4.47699 35.8459 0.631475 -0.454275 -0.628389 11 57 104
-18.5066 -4.48488 36.185 -0.288447 -0.660241 -0.693456 15 68 120
-24.1082 -7.09447 62.9509 0.160649 -0.803418 -0.573334 24 32 23
-22.9396 -7.06878 62.7455 0.203768 -0.807426 -0.553662 43 47 38
-22.8945 -6.99249 62.6497 0.769017 -0.503587 -0.393716 44 48 37
-21.4292 -7.02181 62.3698 -0.593023 0.0602548 -0.802928 42 51 29
-23.3147 -6.80555 62.2771 -0.0962909 -0.770261 -0.630418 27 37 22
-22.9324 -6.83132 62.3265 0.142482 -0.80909 -0.570151 36 40 30
-22.8616 -6.89105 62.3633 0.276773 -0.802198 -0.529033 41 45 35
-22.8353 -6.83206 62.3836 -0.0809436 -0.759577 -0.645361 38 46 32
-21.7549 -6.65992 59.6914 0.675402 0.570319 -0.467512 40 47 31
-23.4676 -6.62893 61.5966 0.0950085 -0.808646 -0.580573 34 43 28
-23.2558 -6.69911 61.7775 -0.018346 -0.799096 -0.600924 30 39 23
-22.7409 -6.65368 61.8462 -0.419589 -0.565051 -0.710396 27 36 22
-22.5438 -6.66865 61.4305 -0.619624 -0.298142 -0.72607 30 37 25
-21.9555 -6.51656 59.7408 -0.574808 -0.348843 -0.740205 33 42 27
-21.9535 -6.4887 60.0623 0.824829 0.0503451 -0.563136 28 34 26
-22.085 -6.62048 61.156 -0.388037 0.161214 -0.907434 32 40 27
-22.8628 -6.42193 60.6779 0.0799303 -0.816158 -0.572273 35 40 30
-21.9719 -6.43105 59.9099 -0.558523 -0.422137 -0.714039 27 33 25
-21.2606 -6.46898 60.3481 0.713842 -0.408517 -0.568809 32 40 29
-20.7228 -6.40551 59.8554 0.468619 -0.735129 -0.489879 35 40 31
-23.5658 -6.21056 59.858 -0.626961 0.0358634 -0.778225 34 44 25
-23.024 -6.35699 60.4332 -0.329904 -0.658498 -0.676419 42 47 35
-22.7078 -6.43111 61.1902 -0.595982 -0.352461 -0.72151 28 36 26
-21.2294 -6.32747 59.9283 0.756079 -0.514813 -0.404119 32 38 30
-20.796 -6.2421 59.2719 0.656712 -0.611687 -0.441099 33 37 30
-20.7204 -6.28345 59.713 0.433249 -0.658541 -0.61532 32 39 28
-23.5657 -6.0506 59.5141 0.654725 -0.559709 -0.507998 31 37 27
-21.9572 -6.15201 59.4951 -0.679921 0.00982026 -0.73322 29 34 25
-21.2332 -6.13466 59.1455 -0.538468 -0.459918 -0.706065 36 47 31
-21.2127 -6.07304 58.9088 0.656216 -0.439418 -0.613426 37 48 30
-21.1208 -6.07326 59.0621 0.86184 -0.352049 -0.365093 38 46 29
-20.6561 -6.13254 59.2404 0.577873 -0.531371 -0.619441 35 45 27
-21.1801 -5.93849 58.547 0.640157 -0.450877 -0.62202 50 63 30
-21.1408 -5.95194 58.9925 0.216038 -0.771939 -0.597861 59 67 39
-21.1661 -5.96119 59.1072 0.209634 -0.776796 -0.593837 57 67 34
-21.1661 -5.96119 59.1072 0.209634 -0.776796 -0.593837 57 67 34
-20.7021 -6.03908 59.1031 -0.559111 -0.0677622 -0.826319 44 55 29
-24.2837 -5.70911 58.2837 0.799238 -0.422 -0.427943 29 32 23
-21.202 -5.82583 58.4319 0.640538 -0.448969 -0.623007 77 91 46
-21.0841 -5.81005 58.5792 0.21593 -0.7725 -0.597176 85 99 50
-20.9083 -5.78582 58.3714 0.026325 -0.814081 -0.580155 83 93 51
-20.8957 -5.78164 58.3209 0.0463521 -0.811173 -0.582966 83 93 51
-20.9702 -5.94591 59.1153 0.844089 -0.371053 -0.387083 63 70 39
-20.997 -5.84623 58.9682 0.177462 -0.786641 -0.591358 79 91 48
-20.9849 -5.86627 58.982 0.169879 -0.7782 -0.604604 77 89 46
-20.9849 -5.86627 58.982 0.169879 -0.7782 -0.604604 77 89 46
-20.8575 -5.90342 59.179 0.0780055 -0.819294 -0.568043 64 74 38
-20.6483 -5.94557 59.0718 -0.121631 -0.146845 -0.981653 61 74 38
-20.5687 -5.8545 59.0021 -0.40385 -0.518276 -0.753853 71 85 43
-22.8932 -5.63887 58.6896 0.693882 -0.463069 -0.551448 68 81 40
-22.5865 -5.59737 57.8091 -0.393633 -0.609528 -0.688135 70 84 38
-21.8106 -5.62919 57.7168 0.47039 -0.691682 -0.548004 66 76 42
-21.2276 -5.715 58.3299 0.645077 -0.443276 -0.6224 93 111 58
-21.0962 -5.77567 58.5247 0.134677 -0.796219 -0.589828 91 108 55
-20.9002 -5.67769 58.2318 0.236176 -0.779364 -0.580356 77 89 48
-20.885 -5.69614 58.2319 0.0902247 -0.811729 -0.577024 83 94 52
-20.885 -5.69614 58.2319 0.0902247 -0.811729 -0.577024 83 94 52
-20.7689 -5.74083 58.5126 0.0230586 -0.813705 -0.580821 83 96 52
-20.8197 -5.78445 58.9414 0.233813 -0.780376 -0.579952 81 92 51
-20.4592 -5.8373 58.8507 -0.385609 -0.450141 -0.805407 65 78 39
-20.4123 -5.7254 58.735 -0.521594 -0.495375 -0.694653 68 81 40
-19.1172 -3.65872 35.765 -0.450144 -0.463236 -0.763402 104 120 135
-24.0651 -5.4615 57.3336 -0.307658 -0.652837 -0.692207 30 34 23
-22.9514 -5.513 58.4075 0.0742994 -0.821082 -0.565955 57 66 42
-22.5965 -5.51874 57.518 -0.536022 -0.445021 -0.717382 71 86 41
-22.4675 -5.47327 57.4292 -0.544487 -0.434061 -0.717723 72 88 41
-20.8834 -5.56269 57.9329 0.0345767 -0.758201 -0.651104 57 65 37
-20.7166 -5.59645 58.0512 0.195105 -0.788235 -0.583627 64 74 42
-20.5655 -5.63879 58.2741 0.0516841 -0.814395 -0.578005 64 74 38
-20.4043 -5.5808 58.3297 0.253639 -0.495201 -0.830929 60 75 40
-19.2727 -3.55989 35.6872 -0.570873 -0.199875 -0.796338 53 66 84
-24.0741 -5.35141 57.2498 -0.14268 -0.753779 -0.641451 37 40 31
-23.8977 -5.26356 57.1772 0.514484 -0.695774 -0.501204 35 39 30
-23.35 -5.3334 57.6438 -0.609999 -0.297076 -0.734607 28 33 23
-21.3344 -5.38991 57.6696 -0.473924 -0.155931 -0.86665 36 44 27
-21.2561 -5.39867 57.7259 -0.212796 -0.451041 -0.866764 35 40 30
-20.1545 -5.41191 57.3847 0.792357 0.523466 -0.313294 60 69 41
-20.1308 -5.40495 57.3054 0.881954 0.355946 -0.308965 60 69 41
-20.2128 -5.55268 58.0195 -0.0455879 -0.380145 -0.923803 64 78 39
-19.5076 -3.49977 35.6006 -0.0920416 -0.768868 -0.632749 23 28 40
-18.4446 -3.61751 36.5336 0.414022 -0.73061 -0.542951 114 118 123
-18.098 -3.6537 36.8769 -0.604626 -0.159142 -0.780449 140 149 152
-17.9208 -3.60849 36.8163 -0.626458 -0.182833 -0.757709 75 86 59
-23.6718 -5.09274 56.3648 0.519861 -0.648606 -0.555927 31 37 26
-23.5636 -5.10717 56.5358 -0.337055 -0.603854 -0.722325 30 35 25
-20.7381 -5.3289 57.57 0.157423 -0.822691 -0.546258 45 58 32
-20.2013 -5.27622 56.8407 0.404277 -0.656959 -0.636368 54 68 34
-20.2302 -5.25875 56.6317 -0.352863 -0.65944 -0.663797 53 68 34
-20.1915 -5.28133 56.8931 0.167346 -0.78603 -0.595107 52 66 34
-20.003 -5.31524 56.9231 0.154294 -0.630486 -0.760711 54 66 33
-19.521 -3.38823 35.3571 0.436414 -0.391074 -0.810311 20 23 35
-18.1398 -3.59116 36.8827 0.570547 -0.121524 -0.812224 133 144 155
-18.0557 -3.58822 36.851 0.0913269 -0.258897 -0.961578 124 136 138
-22.758 -5.10228 57.4529 -0.549314 -0.315486 -0.773772 31 36 28
-21.7936 -5.11672 57.066 0.651251 -0.447948 -0.612548 46 57 31
-21.7042 -5.1119 56.938 0.611317 -0.49957 -0.613776 46 57 29
-21.6403 -5.11416 56.9574 0.534826 -0.582317 -0.612265 44 51 27
-20.3762 -5.17719 56.6134 0.177728 -0.79167 -0.584526 48 63 28
-20.2328 -5.14642 56.5297 -0.214822 -0.744444 -0.632183 53 69 34
-20.1007 -5.16091 56.6115 0.404159 -0.656936 -0.636468 47 61 31
-20.1008 -3.25546 35.4076 -0.500781 -0.0683765 -0.862869 16 19 31
-20.0916 -3.32131 35.4067 -0.216309 -0.0737627 -0.973534 22 26 37
-19.6924 -3.31922 35.2801 -0.07205 -0.55186 -0.830819 52 55 66
-22.6567 -4.97994 57.0979 -0.228846 -0.729019 -0.645105 31 35 29
-20.3735 -5.00983 55.6752 0.515842 -0.60261 -0.608907 47 58 31
-20.2264 -5.02922 56.36 0.562416 -0.41059 -0.717708 48 59 33
-20.1158 -5.03668 56.3826 0.464994 -0.607886 -0.643626 41 52 29
-20.1366 -5.01948 56.2795 0.157657 -0.824343 -0.543693 43 52 30
-20.0085 -5.02113 56.238 -0.0109978 -0.383475 -0.923486 38 49 26
-19.9583 -5.09358 56.4365 0.0131366 -0.814191 -0.580448 38 49 26
-20.0757 -3.18915 35.3648 -0.585446 0.18326 -0.789727 17 19 28
-20.1313 -3.20868 35.4204 -0.389007 0.136685 -0.911038 16 18 29
-19.4571 -3.1957 35.3184 -0.601952 -0.205955 -0.771516 33 34 45
-19.2847 -3.23206 35.2463 -0.453657 -0.504402 -0.734693 21 22 35
-20.8048 -4.9063 56.281 0.479063 -0.696079 -0.534764 43 46 29
-20.317 -4.87552 55.3197 0.300836 -0.805016 -0.511319 36 42 25
-20.0835 -4.9368 56.2902 0.75642 -0.510013 -0.409531 36 45 25
-20.0402 -4.87875 56.1363 0.684915 -0.591706 -0.425177 35 44 26
-19.9573 -4.93218 56.226 0.7431 -0.507678 -0.435965 36 45 27
-19.6643 -4.93221 55.7125 0.0502474 -0.823114 -0.565649 32 39 25
-19.5315 -4.82181 55.2354 0.890387 0.31456 -0.329035 29 35 23
-20.0322 -3.12571 35.398 -0.525824 0.417846 -0.740887 39 41 49
-19.2636 -3.15164 35.2836 -0.520556 -0.327716 -0.788431 25 27 38
-19.1905 -3.14753 35.2026 -0.532695 -0.266761 -0.803165 22 24 37
-17.2669 -3.30441 36.4655 0.475975 -0.493396 -0.728017 65 81 73
-17.2236 -3.31167 36.6386 -0.299391 -0.557188 -0.774536 68 80 65
-20.3152 -4.64668 54.6994 0.550052 -0.562141 -0.617609 29 36 24
-20.3615 -4.71157 55.0004 0.768432 -0.508234 -0.388859 31 34 24
-20.1403 -4.81235 55.8015 0.661084 -0.418848 -0.622522 27 39 24
-19.9922 -4.77867 55.7067 0.672461 -0.461594 -0.578556 32 40 25
-19.7828 -4.72473 55.3434 -0.708279 0.0571448 -0.703616 37 48 31
-19.2479 -3.09146 35.2346 -0.518989 -0.409663 -0.750218 26 28 39
-18.4753 -3.16369 36.0619 0.776864 -0.362431 -0.514904 117 125 137
-17.7159 -3.19702 36.4102 -0.382204 -0.182365 -0.905905 9 63 114
-17.2671 -3.22999 36.4178 0.510817 -0.58775 -0.627389 51 75 96
-20.3544 -4.60042 55.6538 0.223563 -0.332462 -0.916236 33 37 24
-19.8975 -4.65455 55.166 0.741547 0.021195 -0.670566 29 41 25
-20.0151 -4.67256 55.5851 -0.00685608 -0.815888 -0.578169 31 39 25
-20.2036 -2.96128 35.5552 -0.499048 0.456364 -0.73667 19 22 29
-19.5877 -2.96322 35.3764 -0.51911 -0.401065 -0.754766 60 66 76
-19.2284 -3.03201 35.1881 -0.517383 -0.412172 -0.749953 27 29 39
-21.6435 -4.40128 54.8106 -0.38797 -0.569481 -0.724687 54 66 31
-21.6415 -4.40138 54.8169 -0.378365 -0.579429 -0.721874 54 66 31
-20.2752 -2.90962 35.5799 -0.563289 0.198013 -0.802182 21 22 28
-20.1721 -2.9058 35.5741 -0.557358 0.310787 -0.769912 28 30 37
-19.9845 -2.9053 35.4739 -0.551355 0.385523 -0.739851 65 69 79
-18.3068 -2.99934 35.7963 -0.28575 -0.684375 -0.670804 112 119 128
-20.4042 -4.2727 53.9767 0.508495 -0.427629 -0.747373 37 45 29
-20.3966 -4.2656 53.9402 0.647382 -0.393113 -0.652962 35 41 28
-20.1954 -2.85394 35.6126 -0.572843 0.280627 -0.77013 24 25 33
-20.0281 -2.86481 35.56 -0.320523 0.291828 -0.901166 65 68 78
-19.865 -4.13555 52.9554 0.789705 -0.481759 -0.379834 31 39 25
-19.2518 -4.1228 52.7843 0.600733 -0.661058 -0.44958 33 39 28
-19.2595 -4.12572 52.8294 0.511903 -0.719208 -0.469783 33 39 28
-19.0796 -4.11703 52.5898 0.405084 -0.676269 -0.615279 34 42 28
-19.8037 -2.78893 35.3919 -0.249848 0.0437579 -0.967296 67 73 86
-19.416 -2.79694 35.244 -0.550706 -0.0347882 -0.833974 43 48 60
-18.8686 -2.83842 35.7913 0.856306 0.062534 -0.51267 40 39 44
-18.8686 -2.83842 35.7913 0.856306 0.062534 -0.51267 40 39 43
-21.3785 -3.88646 52.1348 -0.560023 -0.412518 -0.718473 26 33 23
-21.2395 -4.08805 54.0201 0.683921 -0.403785 -0.607626 28 33 23
-19.8002 -4.00107 52.8084 0.756595 -0.196069 -0.623796 31 38 27
-19.078 -4.01143 52.4663 0.400362 -0.674484 -0.620308 39 46 28
-20.0556 -2.69464 35.6211 0.395374 0.0795964 -0.915065 64 67 79
-19.7656 -2.72042 35.3633 -0.281 0.0659557 -0.957439 70 75 87
-19.7387 -2.66254 35.3401 -0.374596 -0.275776 -0.885227 70 75 86
-19.6112 -2.72222 35.3333 -0.490149 -0.416088 -0.765915 59 65 77
-21.6431 -3.79574 51.8858 -0.416232 -0.568438 -0.709668 35 42 25
-20.4207 -3.86087 52.7048 0.390711 -0.65781 -0.643919 33 44 27
-20.4272 -3.85758 52.6541 0.481111 -0.549284 -0.683241 33 44 27
-20.3913 -3.87077 52.8945 0.337049 -0.699868 -0.629748 33 43 27
-19.5797 -3.89819 52.7261 0.601861 -0.463966 -0.65 44 51 33
-19.5797 -3.89819 52.7261 0.601861 -0.463966 -0.65 44 51 33
-19.4353 -3.97409 52.7572 0.370885 -0.734891 -0.567785 41 46 33
-19.0806 -3.90583 52.3525 0.379947 -0.627225 -0.679875 54 62 37
-19.119 -3.93782 52.55 0.41473 -0.670077 -0.615627 46 52 32
-19.1565 -3.90196 52.5227 0.391222 -0.617918 -0.681999 53 60 36
-19.0347 -3.94927 52.3805 0.181946 -0.709839 -0.680459 49 58 33
-18.9647 -3.93831 52.4685 0.502705 -0.598045 -0.624203 46 53 32
-19.7787 -2.60656 35.3687 -0.572081 -0.290601 -0.76699 62 69 80
-19.7156 -2.6029 35.2888 -0.236657 -0.465569 -0.852783 66 72 83
-18.0599 -2.65025 35.443 -0.11119 -0.497468 -0.860327 93 92 86
-19.6382 -3.77703 52.3293 0.674667 -0.371651 -0.63773 49 57 29
-19.6382 -3.77703 52.3293 0.674667 -0.371651 -0.63773 49 57 29
-19.4757 -3.76381 52.2542 0.62904 -0.516134 -0.581305 52 57 34
-19.4757 -3.76381 52.2542 0.62904 -0.516134 -0.581305 52 57 34
-19.4994 -3.87952 52.6403 0.660058 -0.407687 -0.630964 51 56 35
-19.4403 -3.87128 52.66 0.336266 -0.724017 -0.602266 53 59 37
-19.4014 -3.87409 52.6327 0.606666 -0.437297 -0.663873 54 60 36
-19.4059 -3.87751 52.6324 0.667015 -0.608415 -0.430026 50 54 38
-19.275 -3.87003 52.531 0.387808 -0.691866 -0.609037 48 55 32
-19.2845 -3.87897 52.6227 0.19167 -0.789857 -0.58257 47 54 32
-18.9596 -2.56584 35.5383 0.469566 0.80477 -0.363116 33 30 33
-17.5375 -2.73919 36.6617 0.131756 0.890577 -0.435331 38 61 85
-17.5611 -2.69016 36.8863 -0.10927 0.800272 -0.589598 44 62 75
-19.9615 -3.59877 51.3221 0.788872 -0.0864051 -0.608454 46 51 28
-19.4439 -3.75094 52.2764 0.522232 -0.526863 -0.670589 60 69 37
-19.477 -3.65594 52.1057 0.757891 -0.524567 -0.387854 49 53 30
-19.3707 -3.75716 52.2911 0.568367 -0.536343 -0.623935 53 59 33
-19.263 -3.75791 52.3774 0.566337 -0.536377 -0.625749 53 60 33
-19.2635 -3.7581 52.3807 0.571875 -0.531175 -0.62515 52 60 33
-19.2492 -3.72087 52.0266 0.513093 -0.722072 -0.464056 47 52 30
-19.1354 -3.72986 52.1093 0.483895 -0.610144 -0.627351 56 62 37
-18.8394 -3.69626 51.8064 0.292793 -0.807344 -0.512317 49 54 33
-18.6559 -3.69417 51.5717 0.510214 -0.720461 -0.469699 45 49 30
-19.8657 -2.45818 35.6252 0.0633031 0.512206 -0.856527 70 82 97
-17.9462 -2.69742 37.3681 0.206474 0.875354 -0.437177 53 58 61
-17.6986 -2.63491 36.9813 -0.357731 0.711219 -0.605141 45 56 60
-19.6739 -3.58264 52.0235 0.650155 -0.57223 -0.499851 50 55 34
-18.7861 -3.57508 51.3662 0.319213 -0.803929 -0.501798 51 56 32
-18.7494 -3.546 51.2436 0.516759 -0.42119 -0.745358 55 62 35
-18.6527 -3.59077 51.4318 0.326248 -0.721083 -0.611229 54 60 36
-18.6472 -3.5496 51.3322 0.521505 -0.451442 -0.72404 61 67 41
-18.6509 -3.54729 51.3059 0.518748 -0.41604 -0.746868 63 69 42
-18.2266 -3.48156 50.3675 0.758537 -0.476406 -0.444589 63 69 40
-18.3624 -3.61433 51.1385 0.659523 -0.524078 -0.538861 54 59 37
-19.2052 -2.37532 35.2915 -0.0311496 0.355204 -0.93427 20 22 31
-21.2857 -3.40074 51.4434 -0.605054 0.0602863 -0.793899 48 56 32
-19.7859 -3.4085 50.4007 -0.236684 -0.740556 -0.628934 49 55 34
-18.8466 -3.36822 50.4994 0.1351 -0.80858 -0.572666 56 61 39
-18.8143 -3.43512 50.9309 0.633932 -0.426676 -0.645041 53 58 34
-18.7339 -3.42595 50.859 0.0780157 -0.807028 -0.585336 52 57 36
-18.2296 -3.37303 50.1273 0.11436 -0.797168 -0.592828 79 86 54
-18.1604 -3.47825 50.4409 0.676783 -0.548692 -0.490818 67 72 43
-19.4061 -3.21202 49.7908 -0.141565 -0.728931 -0.66979 58 66 42
-18.8307 -3.27488 50.1618 0.679144 -0.380035 -0.627963 56 61 40
-18.6327 -3.28177 50.1012 0.135203 -0.678188 -0.722344 54 58 36
-18.7124 -3.33237 50.7988 0.579284 -0.666996 -0.468558 56 61 37
-21.2364 -3.04158 49.8511 0.139235 -0.813637 -0.564455 42 46 31
-21.2412 -3.02959 49.85 0.488658 -0.627378 -0.606308 42 46 32
-21.2414 -3.03908 49.8042 0.102793 -0.821677 -0.560607 42 46 31
-21.2412 -3.02959 49.85 0.488658 -0.627378 -0.606308 42 46 32
-20.4541 -3.23353 51.3574 0.661724 -0.428767 -0.615045 46 52 30
-18.6364 -3.18872 49.648 -0.0408586 -0.81898 -0.572366 51 55 33
-17.9957 -3.20637 49.7316 0.751564 -0.52682 -0.397004 82 89 51
-25.1324 -2.66618 47.9185 0.823044 0.470986 -0.317444 77 76 79
-17.9284 -2.32394 37.4832 0.396923 -0.0178781 -0.917678 43 43 33
-17.999 -3.11837 49.1485 0.55663 -0.377951 -0.739808 90 98 57
-17.9217 -3.11043 49.3119 0.661193 -0.579689 -0.476218 77 83 47
-18.9949 -2.11889 35.5377 -0.12505 -0.286928 -0.949755 106 104 95
-18.919 -2.1194 35.5386 0.150317 -0.0129678 -0.988553 121 119 107
-18.3923 -2.17174 35.6426 0.862723 -0.0289858 -0.504846 104 106 101
-19.3416 -2.92823 49.428 0.0922348 -0.839061 -0.536161 64 66 45
-17.9287 -3.01442 48.9803 0.518916 -0.263239 -0.813285 85 93 52
-17.984 -2.94512 48.9949 -0.0929373 -0.437823 -0.894244 84 89 50
-17.8573 -2.94782 48.9778 0.368107 -0.4305 -0.824116 78 84 46
-24.8371 -2.36474 45.0606 0.902225 0.365233 -0.229335 50 51 59
-19.8742 -2.01602 36.0186 -0.00448091 0.847609 -0.530602 79 83 88
-18.2551 -2.16752 37.1682 0.850767 -0.15138 -0.503269 122 124 119
-17.9585 -2.23467 37.6386 0.783472 0.369129 -0.499915 38 37 33
-21.0911 -2.70266 49.1693 0.302208 -0.728872 -0.614342 40 41 37
-19.9058 -2.84136 49.4003 -0.504294 -0.164095 -0.847797 48 50 33
-19.5024 -2.81951 49.3887 -0.180824 -0.773135 -0.607918 70 73 52
-17.9346 -2.85896 48.8831 0.136356 -0.00952629 -0.990614 78 81 46
-17.8398 -2.86197 48.95 0.671216 -0.59124 -0.447106 53 56 31
-17.8352 -2.86738 48.9854 0.581595 -0.230246 -0.780214 69 74 40
-17.7877 -2.85439 48.8835 0.753665 -0.424197 -0.502042 53 56 30
-25.5521 -2.37231 48.3525 -0.140713 -0.769222 -0.623296 52 53 61
-25.0314 -2.45027 48.1642 0.473814 -0.774049 -0.419939 58 57 60
-25.0166 -2.38687 48.0573 0.135579 -0.839708 -0.525842 57 59 65
