ply
format ascii 1.0
element vertex 210
property float x
property float y
property float z
property uchar diffuse_red
property uchar diffuse_green
property uchar diffuse_blue
end_header
-1.21301 -0.0297289 -3.35504 0 255 0
-1.33424 -0.0441978 -3.3703 0 255 0
-1.41193 -0.149528 -3.75419 0 255 0
-1.82366 -0.391421 -4.4379 0 255 0
-1.61537 -0.064352 -3.20836 0 255 0
-1.63715 -0.144993 -3.37817 0 255 0
-1.59785 -0.269722 -3.7847 0 255 0
-1.41079 -0.148927 -4.20569 0 255 0
-1.58103 -0.424423 -3.63047 0 255 0
-1.18923 -0.209121 -3.44485 0 255 0
-1.16726 -0.184059 -3.5083 0 255 0
-1.04553 -0.00282462 -2.88477 0 255 0
-0.867994 -0.0870617 -2.93909 0 255 0
-0.854286 -0.119409 -2.85496 0 255 0
-0.968942 -0.147786 -2.83156 0 255 0
-0.926922 -0.073675 -2.69857 0 255 0
-0.955099 -0.182047 -3.0056 0 255 0
-0.843153 -0.136339 -2.59832 0 255 0
-0.811116 -0.126994 -2.71034 0 255 0
-0.707944 -0.0481789 -2.6987 0 255 0
-0.67765 -0.105898 -2.51066 0 255 0
-2.7466 -0.0225659 -5.1616 0 255 0
-0.391089 -0.108308 -2.31201 0 255 0
-0.0939696 -0.106389 -2.10717 0 255 0
-0.610366 -0.120207 -2.83948 0 255 0
-0.688689 -0.0615819 -2.70669 0 255 0
-2.17014 0.095038 -4.7666 0 255 0
-2.20651 -0.375752 -4.65111 0 255 0
-2.19952 -0.275249 -4.76262 0 255 0
-1.7828 -0.34999 -3.93595 0 255 0
-1.93192 -0.133452 -4.10838 0 255 0
-2.41223 -0.0434517 -4.67544 0 255 0
-0.504492 -0.14883 -3.02414 0 255 0
-1.30766 0.022635 -3.78268 0 255 0
-1.29655 0.035067 -3.76755 0 255 0
-1.54927 -0.0607983 -3.68387 0 255 0
-1.36814 0.0167903 -3.47252 0 255 0
-2.9104 -0.165772 -5.36067 0 255 0
-3.42979 -0.111134 -5.89253 0 255 0
-2.09476 0.0614145 -4.50546 0 255 0
-3.19453 -0.113675 -5.52131 0 255 0
-2.76076 0.0192251 -5.36926 0 255 0
-3.39502 0.0123025 -5.78374 255 0 255
-3.41594 -0.0817667 -5.74595 0 255 0
-1.84221 -0.292337 -4.51436 0 255 0
-1.74048 -0.169853 -4.05612 0 255 0
-1.73406 -0.240941 -4.00315 0 255 0
-1.94276 -0.423302 -4.78851 0 255 0
-1.67437 -0.210003 -4.48247 0 255 0
-0.414778 -0.0600791 -2.47043 0 255 0
-0.421968 -0.0191108 -2.73497 0 255 0
-0.594907 0.0179782 -2.66397 0 255 0
-0.401749 0.0287223 -2.96316 0 255 0
-0.39666 -0.151092 -2.48567 0 255 0
-3.60719 0.00996986 -6.21845 0 255 0
-0.273427 0.0566301 -2.25121 0 255 0
-4.6099 0.105353 -7.50965 0 255 0
-4.59327 0.215417 -6.43545 0 255 0
-4.47185 -0.00583286 -6.362 0 255 0
-4.91523 -0.0259505 -6.49218 0 255 0
-4.31699 0.202451 -6.4334 0 255 0
-0.592331 -0.0717155 -2.78929 0 255 0
0.00183082 -0.126092 -2.54865 0 255 0
-0.381512 0.032618 -2.76663 0 255 0
-0.409591 0.0219401 -2.96717 0 255 0
-3.01255 -0.212598 -5.24968 0 255 0
-2.3813 0.101977 -4.75678 0 255 0
-0.435936 -0.0555179 -2.47658 0 255 0
-0.394409 0.00972962 -2.32009 255 0 255
-0.248626 -0.0294657 -2.52486 255 0 255
-0.104931 -1.93299e-008 -2.27385 0 255 0
-0.295104 0.178205 -2.03237 0 255 0
-0.175719 0.0446758 -2.18146 0 255 0
-0.107198 0.0168127 -2.10239 0 255 0
-0.185178 0.0233 -2.38968 0 255 0
-0.660609 0.0639665 -2.68896 0 255 0
-0.612866 0.0284634 -2.69896 0 255 0
-0.268588 0.0154313 -2.25131 0 255 0
-0.282552 0.079772 -2.20945 0 255 0
-0.203312 0.247583 -2.35492 0 255 0
-0.24256 0.134809 -2.23147 0 255 0
0.0372802 -0.0992856 -2.2563 0 255 0
-0.0818141 -0.166244 -2.26057 0 255 0
0.0524714 -0.118633 -2.19833 0 255 0
-0.0766439 -0.149034 -2.27639 0 255 0
-0.103445 -0.0907407 -1.90489 0 255 0
-0.12283 0.0548027 -1.66157 0 255 0
0.124288 0.0220309 -1.81402 0 255 0
0.206308 -0.117278 -2.05521 0 255 0
0.0214403 -0.00789347 -1.76293 0 255 0
0.00870651 -0.0342359 -1.81418 0 255 0
0.12056 0.0620973 -1.62327 0 255 0
0.184716 0.00927102 -1.89764 0 255 0
0.196874 -0.0317444 -1.81394 0 255 0
0.224693 -0.0891447 -2.18091 0 255 0
-0.929044 0.0557055 -3.12667 0 255 0
-1.00142 -0.0255601 -3.0413 0 255 0
-1.09924 0.0822943 -3.28835 0 255 0
-1.84168 -0.27617 -4.26715 0 255 0
-2.69469 -0.0247666 -6.33043 0 255 0
-3.09585 0.00590965 -5.74251 0 255 0
-3.0149 -0.00700859 -5.04698 0 255 0
-3.23681 -0.129088 -5.45191 0 255 0
-3.47569 -0.0763958 -5.52492 0 255 0
-3.60241 -0.0141867 -5.78853 0 255 0
-3.92869 0.00841971 -6.3496 0 255 0
-4.06436 0.00321453 -6.66138 0 255 0
-4.01161 0.143564 -6.12262 0 255 0
-4.268 0.00649967 -6.50333 0 255 0
-4.3936 0.166266 -6.53993 255 0 255
-3.70703 0.192763 -5.6298 0 255 0
-4.05213 -0.0102169 -6.42088 0 255 0
-4.13434 -0.00332513 -6.7119 0 255 0
-5.02833 -0.100098 -6.72546 0 255 0
-4.45623 0.188714 -5.80803 0 255 0
-4.0959 -0.103016 -6.15654 0 255 0
-4.46946 0.0331532 -6.24386 0 255 0
-5.47639 0.0128467 -7.33861 0 255 0
-5.41865 0.00886855 -7.17794 0 255 0
-5.4724 0.0126759 -7.32747 0 255 0
-5.40187 0.0753942 -6.95351 0 255 0
-5.308 -0.0109296 -6.86226 0 255 0
-5.24583 0.01245 -6.69854 0 255 0
-5.9746 -0.146884 -7.63232 0 255 0
-5.82478 -0.0485743 -7.30031 0 255 0
-5.87825 0.183787 -7.62958 0 255 0
-6.26474 0.11379 -8.32372 0 255 0
-5.17443 0.408129 -6.69181 0 255 0
-5.15641 0.0223176 -6.6719 0 255 0
-5.40271 -1.26098e-007 -7.1211 0 255 0
-5.37776 0.327001 -6.61421 0 255 0
-5.18403 0.0139494 -6.5408 0 255 0
-6.0905 0.474553 -7.7285 0 255 0
-6.3268 0.680143 -8.32045 0 255 0
-6.77669 0.644763 -8.1477 0 255 0
-6.9688 0.711349 -7.75727 0 255 0
-7.05141 0.971715 -8.53365 255 0 255
-7.00555 0.764644 -8.20866 0 255 0
-7.03912 0.741872 -8.16417 0 255 0
-7.0229 0.739631 -8.62325 0 255 0
-6.66715 0.673058 -8.67716 0 255 0
-2.2899 0.178261 -4.49014 0 255 0
-2.12177 0.0243139 -5.343 0 255 0
0.375037 0.0500266 -1.69228 0 255 0
0.451982 -1.82272e-009 -1.7118 0 255 0
0.376257 -0.0233853 -1.81647 0 255 0
0.39915 0.0311021 -1.70508 0 255 0
0.457182 0.0109173 -1.5612 0 255 0
0.453426 -0.178895 -1.63678 0 255 0
0.562657 -0.206847 -1.91174 0 255 0
0.591876 -0.337992 -2.01626 0 255 0
0.616907 0.0485788 -1.67449 0 255 0
0.622187 0.040461 -1.66993 0 255 0
0.544767 0.100933 -1.55552 0 255 0
0.799194 -0.183909 -1.79816 0 255 0
1.02411 -0.207413 -2.25359 0 255 0
0.694531 -0.0870259 -1.62905 0 255 0
0.71931 -0.0495045 -1.52141 0 255 0
0.654982 -0.0341557 -1.96376 0 255 0
0.789782 -0.0775648 -1.69775 0 255 0
0.874457 0.0255474 -1.6098 0 255 0
0.267289 -0.0123811 -1.68712 0 255 0
0.278048 -0.10107 -1.7869 0 255 0
0.353611 -0.2835 -1.97013 0 255 0
0.194806 0.131078 -1.63617 0 255 0
0.294186 0.0717697 -2.05891 0 255 0
0.142189 0.16181 -1.7237 0 255 0
0.520006 0.105027 -1.44454 0 255 0
1.03192 0.0766722 -1.74057 0 255 0
0.824299 0.177803 -1.39074 0 255 0
0.86656 -0.0356268 -1.67968 0 255 0
0.828601 0.119353 -1.56265 0 255 0
0.548477 0.0332265 -1.42553 0 255 0
0.700124 0.312113 -1.11329 0 255 0
0.903929 0.17754 -1.72738 0 255 0
0.858332 0.151504 -1.58204 0 255 0
0.428364 -0.230574 -2.23452 0 255 0
0.865075 0.101993 -1.76787 0 255 0
0.812016 0.248047 -1.22212 0 255 0
0.811995 0.248064 -1.22221 0 255 0
0.811983 0.248057 -1.22212 0 255 0
0.812017 0.248078 -1.22216 0 255 0
0.812005 0.248108 -1.22218 0 255 0
-7.09285 0.896251 -9.37594 255 0 255
-6.19242 0.742583 -7.8953 0 255 0
-5.64087 0.33659 -6.84216 0 255 0
-6.23137 0.0325595 -7.96458 0 255 0
-5.74461 0.391477 -7.00026 0 255 0
-3.46005 -0.00534689 -5.75669 0 255 0
-2.37681 0.13477 -4.89331 0 255 0
-2.58882 -0.0207023 -5.34855 0 255 0
-3.03775 -0.184433 -5.39661 0 255 0
-1.13079 0.110702 -3.42184 0 255 0
-2.44389 -0.082183 -5.07887 0 255 0
-1.9365 0.0502673 -4.59362 0 255 0
-1.39641 0.120349 -3.45798 0 255 0
-2.60415 -0.00245525 -5.68523 0 255 0
-0.424165 -0.0293912 -2.58421 0 255 0
-0.622856 0.0279241 -2.74816 0 255 0
-0.0455655 0.0530164 -1.60838 0 255 0
0.466328 -0.393385 -2.22132 0 255 0
0.508709 -0.115108 -2.25672 0 255 0
0.494968 0.0212044 -1.49519 0 255 0
0.544314 -0.0439371 -1.62644 0 255 0
0.81201 0.248098 -1.22222 0 255 0
0.649788 -0.0187632 -1.90449 0 255 0
0.812003 0.247983 -1.22224 0 255 0
0.811974 0.248047 -1.22204 0 255 0
0.812013 0.248003 -1.22215 0 255 0
0.216932 0.0773429 -1.7903 0 255 0
