ply
format ascii 1.0
element vertex 77
property float x
property float y
property float z
property uchar diffuse_red
property uchar diffuse_green
property uchar diffuse_blue
end_header
4.12337 0.00121492 -11.9125 255 0 255
3.29717 0.00353828 -12.0372 0 255 0
5.05229 0.00146553 -11.987 0 255 0
2.37306 0.00285976 -11.9382 0 255 0
1.46737 0.0142728 -11.8742 0 255 0
0.570296 0.0209536 -11.8391 255 0 255
-0.302803 0.0256084 -11.8513 0 255 0
-1.22538 0.0224011 -11.7425 0 255 0
-2.11534 0.0114309 -11.6361 255 0 255
-3.0201 0.00690001 -11.5393 0 255 0
-3.93176 -3.13348e-008 -11.4069 0 255 0
-4.83657 -0.00383608 -11.27 0 255 0
-5.75088 0.00420696 -11.118 255 0 255
-6.66148 0.0011236 -10.9536 255 0 255
-7.51931 0.00190715 -10.9175 255 0 255
-8.40067 0.00210985 -10.7987 255 0 255
-9.31421 -0.00838059 -10.6177 255 0 255
-10.1925 -0.00620619 -10.446 255 0 255
-11.0759 -0.00683002 -10.3741 255 0 255
-11.9461 -0.00344674 -10.2222 0 255 0
-12.8177 -0.010966 -10.0064 255 0 255
-13.676 -0.00252335 -9.88842 0 255 0
-14.5515 0.00608839 -9.72638 255 0 255
-15.4108 -0.00112787 -9.56482 0 255 0
-16.2682 0.0100383 -9.37857 255 0 255
-17.1252 -0.00163098 -9.09802 0 255 0
-17.9661 0.00862239 -8.96901 0 255 0
-18.8182 0.004218 -8.73654 255 0 255
-19.6651 0.00609052 -8.50039 255 0 255
-20.5108 -0.00666191 -8.18271 0 255 0
-21.3492 -2.7711e-007 -8.02317 0 255 0
-22.1856 -0.0107601 -7.7267 0 255 0
-23.0189 -0.0199212 -7.40882 0 255 0
-23.8558 -0.0386834 -7.0846 255 0 255
-24.6602 -0.0485248 -6.76875 0 255 0
-25.463 -0.0550897 -6.44764 0 255 0
-26.2615 -0.0579383 -6.12173 0 255 0
-27.0711 -0.0676611 -5.82377 255 0 255
-27.8493 -0.0846544 -5.46128 255 0 255
-28.6462 -0.097231 -5.15149 255 0 255
-29.4666 -0.102838 -4.98441 0 255 0
-30.2425 -0.116855 -4.64007 0 255 0
-31.0236 -0.126498 -4.35031 255 0 255
-31.7985 -0.150338 -4.05439 0 255 0
-32.5463 -0.16398 -3.69652 255 0 255
-33.2993 -0.185171 -3.34904 0 255 0
-34.0586 -0.205492 -3.03262 0 255 0
-34.7884 -0.22318 -2.64767 0 255 0
-35.4907 -0.249678 -2.21434 255 0 255
-36.195 -0.269565 -1.78382 0 255 0
-36.9254 -0.278651 -1.46028 0 255 0
-37.5907 -0.300297 -0.957934 255 0 255
-38.2925 -0.329096 -0.575716 0 255 0
-38.9654 -0.346732 -0.149303 0 255 0
-39.618 -0.363915 0.27367 255 0 255
-40.3017 -0.383621 0.649569 0 255 0
-40.9736 -0.39506 1.02918 0 255 0
-41.6173 -0.412913 1.45909 0 255 0
-42.2499 -0.444351 1.88366 0 255 0
-42.8931 -0.456283 2.30125 0 255 0
-43.5528 -0.486119 2.68209 0 255 0
-44.1892 -0.508874 3.10199 0 255 0
-44.8198 -0.529842 3.51505 255 0 255
-45.4309 -0.552246 3.95833 255 0 255
6.80499 -0.00576995 -11.9216 0 255 0
5.96475 0.000772716 -12.049 0 255 0
7.71769 0.0115571 -11.9689 0 255 0
8.61013 -0.0378269 -11.942 255 0 255
10.5976 4.82868e-005 -12.2287 0 255 0
9.5234 -0.00345933 -11.9544 255 0 255
11.3218 9.3716e-008 -11.8245 0 255 0
12.2028 0.0190681 -11.8119 0 255 0
12.9848 -0.00754977 -11.5304 0 255 0
14.0661 0.0171085 -11.8064 0 255 0
14.8425 -0.000544981 -11.5686 0 255 0
17.4527 -0.0549403 -11.2757 0 255 0
-48.2167 -0.661687 6.3316 0 255 0
