ply
format ascii 1.0
element vertex 51
property float x
property float y
property float z
property uchar diffuse_red
property uchar diffuse_green
property uchar diffuse_blue
end_header
4.23648 -0.000202533 -9.2245 0 255 0
1.93936 -0.10338 -7.92336 255 0 255
2.44801 -0.0732212 -8.04872 255 0 255
3.58936 -0.0162981 -8.72995 255 0 255
5.50362 0.0062002 -9.81986 0 255 0
0.923971 -0.161372 -7.40775 0 255 0
0.433408 -0.187202 -7.13339 0 255 0
-0.50622 -0.222994 -6.61949 255 0 255
-0.960089 -0.241652 -6.34543 0 255 0
-1.82926 -0.256004 -5.77266 0 255 0
-2.24746 -0.25702 -5.49618 0 255 0
-3.04242 -0.254727 -4.89372 0 255 0
-3.39913 -0.245077 -4.52387 0 255 0
-4.12133 -0.207866 -4.00367 0 255 0
-4.45066 -0.17995 -3.72401 0 255 0
-5.05602 -0.122642 -3.10857 255 0 255
-5.33104 -0.0939415 -2.79237 0 255 0
-5.78094 -0.0401926 -2.09893 255 0 255
-5.97658 -0.0205106 -1.75339 0 255 0
-6.37784 8.76285e-009 -1.15495 0 255 0
-6.59871 -0.00327943 -0.897274 255 0 255
-6.99306 -0.00380062 -0.381271 255 0 255
-7.17389 -0.00167735 -0.11593 0 255 0
-7.51004 0.00493344 0.407911 0 255 0
-7.65661 0.00485082 0.685531 255 0 255
-7.94415 0.0162037 1.20241 255 0 255
-8.09621 0.0229893 1.44354 0 255 0
-8.2933 0.0498565 1.96492 255 0 255
-8.38966 0.061569 2.21514 255 0 255
-8.61566 0.091551 2.67449 0 255 0
-8.68575 0.105545 2.92866 0 255 0
-8.87186 0.14478 3.37814 0 255 0
6.16637 0.00656689 -10.0991 0 255 0
7.62252 0.0148266 -10.8116 255 0 255
8.40459 0.0184621 -11.186 255 0 255
9.92779 -0.00693353 -11.6871 0 255 0
10.6863 -0.0139801 -11.8749 0 255 0
12.5556 -0.00692113 -12.6764 255 0 255
13.2635 1.84339e-008 -12.6427 0 255 0
15.8697 0.00578999 -14.1 255 0 255
16.6923 -0.0034293 -14.0782 0 255 0
19.5508 0.0270536 -15.3453 255 0 255
21.0174 0.031301 -15.909 0 255 0
22.365 0.020126 -15.2214 0 255 0
25.3159 0.0726593 -17.0307 0 255 0
26.3203 1.29955e-007 -14.9211 0 255 0
24.8307 -0.0142384 -14.6165 0 255 0
33.5771 0.0872695 -18.6208 255 0 255
31.8667 0.0256264 -16.267 0 255 0
35.2997 0.0396978 -16.6839 255 0 255
44.9463 0.000900992 -19.6306 0 255 0
