ply
format ascii 1.0
element vertex 736
property float x
property float y
property float z
property float nx
property float ny
property float nz
property uchar diffuse_red
property uchar diffuse_green
property uchar diffuse_blue
end_header
-0.899862 0.163581 7.40132 -0.228249 -0.612142 -0.75709 39 45 33
-0.807103 0.161553 7.48951 -0.495291 -0.340461 -0.799233 49 54 41
-0.679055 0.1645 7.44114 -0.633782 -0.706812 -0.314224 35 37 29
-0.652384 0.155657 7.45701 -0.253804 -0.862119 -0.43856 47 46 33
-0.646813 0.157445 7.44631 -0.24282 -0.71847 -0.651797 50 50 39
-0.645726 0.161124 7.44829 -0.289161 -0.837639 -0.463409 45 46 37
-0.586729 0.156692 7.41709 -0.0955316 -0.693873 -0.713733 36 39 35
-0.394953 0.148718 7.32969 -0.943329 -0.309998 -0.118454 25 32 26
-0.388351 0.144511 7.32143 -0.585021 -0.765295 -0.268466 25 32 25
-0.0747588 0.12849 7.11252 -0.484721 -0.612632 -0.624282 166 169 150
-0.0741893 0.135027 7.08276 -0.22249 -0.839816 -0.495185 120 126 93
-0.811159 0.178303 7.47723 -0.668327 0.291462 -0.68439 38 44 32
-0.567693 0.167588 7.37544 -0.450356 -0.558648 -0.696486 43 47 42
-0.302508 0.150833 7.23798 -0.5785 -0.041149 -0.814644 102 107 69
-0.0962466 0.13955 7.11047 -0.611908 -0.746991 -0.259949 124 127 89
-0.80558 0.187591 7.47019 -0.688916 0.298752 -0.66041 31 38 27
-0.641944 0.177251 7.41018 -0.103152 -0.675553 -0.73006 48 48 40
-0.626658 0.181841 7.40664 -0.572722 -0.660281 -0.485818 55 54 45
-0.622887 0.173595 7.4194 -0.0750716 -0.780646 -0.620448 53 51 44
-0.581407 0.181112 7.38368 -0.769698 -0.293626 -0.566876 40 42 32
-0.571216 0.179011 7.36128 -0.756793 -0.427212 -0.494726 27 29 24
-0.609845 0.190415 7.39351 -0.430019 -0.811601 -0.395459 77 73 67
-0.609855 0.192962 7.38938 -0.396833 -0.792572 -0.462983 84 81 73
-0.596187 0.192032 7.37928 -0.380269 -0.81568 -0.43596 61 58 49
-0.308371 0.174528 7.18315 -0.767631 -0.586985 -0.257276 75 81 49
-0.213812 0.165649 7.09765 -0.755434 -0.511493 -0.409505 157 161 90
-0.0314509 0.154473 6.9779 -0.0780385 -0.735827 -0.672658 110 117 75
-0.731198 0.207953 7.42664 -0.764457 -0.432279 -0.478268 26 29 26
-0.72098 0.201184 7.43221 -0.472723 -0.512684 -0.71672 27 28 27
-0.708157 0.20081 7.42976 -0.681203 -0.540602 -0.493672 35 37 33
-0.644531 0.198457 7.3977 -0.764583 -0.611198 -0.204573 34 36 31
-0.628742 0.196888 7.38407 -0.637637 -0.596232 -0.487777 56 56 48
-0.912741 0.214191 7.42164 -0.00106764 -0.320556 -0.947229 36 47 33
-0.914635 0.213781 7.40874 -0.389861 0.040706 -0.919974 35 47 32
-0.750059 0.210374 7.42889 -0.689497 -0.52677 -0.4971 35 38 32
-0.753728 0.212036 7.44248 -0.696801 -0.61209 -0.373918 34 38 31
-0.726427 0.217775 7.41928 -0.664798 -0.561492 -0.492717 32 35 31
-0.726231 0.214906 7.42318 -0.146808 -0.500688 -0.853088 32 34 30
-0.722809 0.216406 7.40574 -0.0130003 -0.587396 -0.809195 35 38 34
-0.418936 0.197054 7.18525 -0.0802129 -0.766938 -0.636688 33 44 33
-0.402019 0.197222 7.20477 -0.432895 -0.839863 -0.327465 34 45 35
-0.303731 0.19523 7.27734 0.127981 -0.746984 -0.652407 30 35 29
-1.11286 0.236882 7.58 -0.0731624 -0.306003 -0.949215 23 33 23
-1.102 0.236858 7.57839 0.0828688 -0.437236 -0.895521 21 30 21
-0.723078 0.225496 7.41468 -0.0076116 -0.727219 -0.686364 34 37 33
-0.722375 0.221503 7.38723 0.236152 -0.523912 -0.818382 31 36 31
-0.713831 0.223969 7.38077 0.0629658 -0.523089 -0.849949 35 41 35
-0.46081 0.212638 7.19315 -0.939552 -0.320378 -0.120829 27 40 27
-0.139007 0.202056 7.29311 0.504956 -0.367755 -0.780881 73 79 46
-1.24814 0.252307 7.42157 0.364244 -0.305835 -0.879654 20 26 19
-1.25144 0.252823 7.43317 0.358117 -0.329823 -0.873481 20 26 18
-1.14516 0.252784 7.58587 -0.199532 -0.81659 -0.541635 23 32 22
-0.713212 0.23624 7.37107 0.013549 -0.649727 -0.760047 38 44 37
-0.690288 0.229629 7.33511 -0.318392 -0.860039 -0.398698 42 46 43
-0.697341 0.229978 7.32703 -0.30257 -0.862427 -0.405796 40 43 40
-0.696191 0.230013 7.32812 -0.280469 -0.861782 -0.422693 40 43 40
-0.697341 0.229978 7.32703 -0.30257 -0.862427 -0.405796 40 43 40
-0.626965 0.228386 7.33586 -0.662054 -0.641873 -0.38689 48 50 41
-0.463653 0.22349 7.19372 -0.932604 -0.339477 -0.122499 22 34 22
-0.302293 0.212274 7.11482 -0.634412 -0.670059 -0.385412 63 71 36
-1.31151 0.26136 7.39232 0.352386 -0.48078 -0.802917 19 26 20
-1.29962 0.261213 7.39325 0.325205 0.364896 -0.872406 21 29 21
-0.757088 0.239472 7.32476 -0.233015 -0.848198 -0.475672 33 39 34
-0.744692 0.246317 7.37319 -0.036158 -0.57098 -0.820167 39 43 37
-0.729236 0.242161 7.33052 -0.173592 -0.858659 -0.482256 36 40 35
-0.690505 0.237558 7.31781 -0.302437 -0.860743 -0.409454 38 42 38
-0.489779 0.22889 7.11962 -0.233863 -0.803961 -0.546768 29 41 30
-0.472897 0.225388 7.13373 -0.272379 -0.841348 -0.466844 30 42 31
-1.24549 0.265167 7.42846 0.331357 -0.290861 -0.897554 22 30 21
-1.25268 0.265333 7.41676 0.337193 -0.388951 -0.857332 22 30 21
-0.935463 0.25603 7.35695 -0.178096 -0.864278 -0.47043 21 33 22
-0.797177 0.255346 7.32955 -0.667439 -0.374069 -0.643892 37 42 35
-0.786642 0.255262 7.32713 -0.659775 -0.388539 -0.643222 33 39 31
-0.678926 0.246045 7.31048 -0.359216 -0.702684 -0.614165 40 45 39
-0.665974 0.247423 7.30403 -0.615496 -0.350707 -0.705811 34 38 33
-0.41748 0.239343 7.12849 -0.791735 -0.293353 -0.535816 30 40 25
-0.303373 0.228104 7.10891 -0.827547 -0.240554 -0.507246 45 51 32
-1.3055 0.274157 7.40026 0.387985 -0.40595 -0.82745 21 28 21
-1.30729 0.274047 7.39751 0.368405 -0.449938 -0.813532 21 28 21
-1.29377 0.273995 7.40094 0.32528 0.362323 -0.87345 23 31 24
-0.84707 0.267141 7.31388 -0.322529 -0.816073 -0.479583 27 33 25
-0.808316 0.264818 7.3339 0.140584 -0.5197 -0.842703 31 35 28
-0.816491 0.266663 7.32367 -0.323464 -0.690638 -0.64683 30 35 28
-0.821006 0.269477 7.32701 -0.423318 -0.60064 -0.678258 25 30 24
-0.802935 0.265175 7.32547 -0.671398 -0.365513 -0.64469 30 34 28
-0.807371 0.264126 7.32225 -0.339371 -0.572211 -0.746594 30 35 29
-0.830472 0.263891 7.23967 -0.921283 -0.35845 -0.150834 32 40 31
-0.709349 0.25867 7.29614 -0.625878 -0.73749 -0.253742 31 37 31
-0.273765 0.242309 7.0571 0.00910056 0.281012 -0.959661 54 59 33
-1.30679 0.286556 7.39675 0.386688 -0.408933 -0.826587 24 31 24
-1.31054 0.287621 7.39143 0.397563 -0.38294 -0.833847 24 32 24
-0.865184 0.275128 7.30341 -0.229811 -0.849168 -0.4755 27 36 26
-0.846982 0.275545 7.2997 -0.182495 -0.863618 -0.469956 22 27 21
-0.819383 0.274538 7.33315 0.271664 -0.516425 -0.812098 22 27 22
-0.822353 0.279593 7.32812 -0.350376 -0.720499 -0.59843 21 26 21
-0.813986 0.274508 7.32787 0.0867424 -0.615784 -0.783126 24 30 24
-0.807007 0.274273 7.32345 0.192793 -0.38362 -0.903143 23 29 23
-0.834269 0.27433 7.24015 -0.921413 -0.358052 -0.15099 27 36 28
-0.821001 0.265558 7.2367 -0.924846 -0.349863 -0.149182 32 40 31
-0.224953 0.258892 7.25079 0.305616 -0.41782 -0.855585 22 26 21
-0.277551 0.253418 7.05376 -0.436455 0.189266 -0.879594 49 55 32
-0.2717 0.253302 7.04615 -0.623005 0.0219912 -0.781908 56 60 41
0.000575325 0.247666 7.04006 -0.760842 -0.16932 -0.626458 115 122 80
-0.838756 0.285398 7.2398 -0.921428 -0.358009 -0.150998 21 29 23
-0.55519 0.272823 7.11191 -0.0335302 -0.558666 -0.828715 26 34 30
-0.554919 0.265649 7.11357 -0.0253827 -0.53569 -0.844033 22 30 26
-0.548172 0.26683 7.11161 -0.639798 -0.145398 -0.754664 22 32 28
-0.425319 0.263223 7.08288 -0.436531 -0.421768 -0.794703 28 38 24
-0.0270445 0.256817 7.10695 -0.234452 -0.736911 -0.63403 67 73 45
-0.981493 0.301885 7.33023 -0.718757 -0.651378 -0.243095 30 38 26
-0.842105 0.290396 7.25047 -0.921546 -0.357673 -0.151071 20 28 20
-0.840726 0.291415 7.22724 -0.692607 -0.484495 -0.534378 20 29 22
-0.83137 0.290022 7.22364 -0.295575 -0.0339718 -0.954715 24 35 26
-0.562254 0.278823 7.11218 -0.569888 -0.708343 -0.416506 28 34 29
-0.553986 0.275739 7.10398 -0.213865 -0.699992 -0.681376 29 37 33
-0.547555 0.274924 7.10261 -0.353031 -0.619669 -0.700985 29 38 33
-1.00074 0.315062 7.32834 -0.0830482 -0.542966 -0.835638 27 36 25
-0.99414 0.306699 7.32811 0.070694 -0.377589 -0.923271 26 35 24
-0.990136 0.309017 7.33048 -0.393436 -0.557272 -0.731201 28 37 26
-0.842088 0.304327 7.24272 -0.384875 -0.380608 -0.840838 19 27 20
-0.838919 0.298682 7.22096 -0.704008 -0.553907 -0.444477 22 31 23
-0.50559 0.292297 7.07302 -0.598072 -0.448812 -0.663987 29 38 28
-0.867307 0.313982 7.21413 -0.819108 -0.381188 -0.42867 25 33 26
-0.727097 0.304355 7.1422 -0.83258 0.385281 -0.397958 33 41 30
-0.731767 0.310498 7.14628 -0.989778 -0.0514622 -0.13301 32 41 30
-0.719038 0.305787 7.1719 -0.811183 -0.556493 -0.179716 32 40 29
-0.719038 0.305787 7.1719 -0.811183 -0.556493 -0.179716 32 40 29
-0.062669 0.290386 7.05236 -0.73201 -0.504381 -0.457997 28 35 21
-0.0482363 0.289706 7.03827 -0.872395 -0.145861 -0.466531 34 42 26
-1.16594 0.336625 7.39265 0.113479 -0.532237 -0.838955 29 37 27
-1.00349 0.333506 7.31983 -0.373242 -0.389934 -0.841809 28 38 29
-1.00255 0.325983 7.31959 -0.424111 -0.211091 -0.880665 31 40 31
-0.991176 0.333585 7.31678 -0.697331 -0.277184 -0.660984 32 42 34
-0.86639 0.32152 7.23033 -0.148296 -0.807633 -0.570735 27 34 27
-0.729281 0.315919 7.13869 -0.941974 -0.308355 -0.132673 34 43 32
-0.732207 0.320775 7.14818 -0.941976 -0.308347 -0.132676 33 40 30
-0.718588 0.313388 7.10595 -0.508068 -0.745406 -0.431552 35 43 31
-0.706456 0.309551 7.10827 -0.832279 -0.457596 -0.312918 36 44 32
-0.255569 0.299242 6.96199 -0.49898 -0.780112 -0.377418 83 84 72
-0.0514334 0.294509 7.05071 -0.848668 -0.515427 -0.118736 27 34 21
-1.00497 0.332576 7.15766 -0.97165 0.168798 -0.165541 26 31 25
-1.00554 0.338027 7.16667 -0.967279 0.191708 -0.16619 26 32 26
-0.906574 0.334312 7.26867 -0.922998 -0.232433 -0.306676 31 38 30
-0.807389 0.333279 7.20024 -0.767859 -0.399051 -0.50115 33 42 33
-0.730241 0.321541 7.12867 -0.941198 -0.310893 -0.132255 30 39 27
-0.450074 0.315965 7.0167 -0.951258 -0.195181 -0.238774 22 28 21
-0.0355352 0.304113 7.02069 -0.867419 -0.174028 -0.466154 34 39 24
-0.035135 0.304579 7.03251 -0.854058 -0.237201 -0.462948 31 36 23
-0.814124 0.340444 7.20208 -0.372605 -0.557946 -0.741526 30 39 30
-0.794891 0.332943 7.13802 -0.749364 -0.558536 -0.355656 29 35 28
-0.789374 0.333885 7.14524 -0.258446 -0.848731 -0.46137 29 35 29
-0.580818 0.323523 6.97803 -0.682768 0.675533 -0.278358 30 40 29
-0.461848 0.320416 7.01584 -0.974546 -0.190866 -0.117598 25 33 26
-0.461499 0.320434 7.01624 -0.954368 -0.260671 -0.145716 26 36 27
-0.128486 0.309426 6.81344 -0.982583 -0.139516 -0.122745 56 60 38
-0.136696 0.304371 6.80006 -0.979183 -0.18266 -0.0885207 67 72 45
-0.807114 0.34692 7.10774 -0.239409 -0.835073 -0.495314 30 37 30
-0.580173 0.333118 6.9802 -0.756562 -0.169218 -0.631648 28 39 27
-0.140401 0.316874 6.79034 -0.937492 -0.335137 -0.093766 57 61 40
-1.08249 0.367434 7.16163 -0.0465751 0.343623 -0.937952 35 40 36
-1.06299 0.365752 7.18681 0.432366 -0.0334294 -0.901078 34 40 34
-0.808296 0.355734 7.09181 -0.303743 -0.866922 -0.395204 27 33 27
-0.587055 0.349476 6.98324 -0.855767 -0.262016 -0.446106 32 42 33
-1.20153 0.388338 7.31154 -0.0778741 -0.845604 -0.5281 24 30 22
-1.19974 0.387796 7.30216 0.054368 -0.775777 -0.62866 22 28 21
-1.08974 0.377882 7.16327 0.100026 0.324085 -0.940725 25 31 25
-1.07431 0.377924 7.171 0.406178 0.190855 -0.893641 36 40 34
-1.0672 0.3774 7.17391 0.312507 0.0532532 -0.948421 36 41 34
-0.940811 0.377677 7.19445 -0.0634226 -0.378494 -0.923428 25 31 24
-0.50436 0.351401 6.92238 -0.129484 -0.786396 -0.603999 28 37 30
-0.451522 0.351464 6.91397 0.193161 -0.540226 -0.819051 27 34 28
-0.445833 0.353253 6.93299 -0.0417506 -0.736714 -0.674915 28 35 29
-1.21265 0.397364 7.27888 -0.200284 -0.774552 -0.599962 23 29 22
-1.18275 0.400658 7.31026 0.0545544 -0.775285 -0.629252 23 27 21
-1.19161 0.398199 7.26368 -0.804468 -0.482967 -0.345794 23 27 21
-1.08054 0.391012 7.16742 0.20814 0.524813 -0.825379 25 31 25
-1.06848 0.391002 7.16805 0.411567 0.161945 -0.896876 32 38 32
-0.955858 0.385669 7.18983 0.0699883 0.170768 -0.982822 23 29 22
-0.922893 0.388649 7.20284 -0.232642 -0.552646 -0.800287 30 36 29
-0.889981 0.379479 7.05726 -0.325341 -0.870608 -0.369046 22 29 20
-1.28929 0.41672 7.36494 0.0731617 -0.437645 -0.896166 23 28 23
-1.29601 0.415374 7.35737 0.115834 -0.285369 -0.951392 23 29 23
-1.24519 0.402206 7.2711 0.171214 -0.671577 -0.720881 27 31 25
-1.23099 0.403747 7.26731 -0.327658 -0.731135 -0.5984 25 30 24
-1.22494 0.405836 7.25056 -0.398321 -0.798733 -0.450961 22 26 21
-1.19306 0.407988 7.27722 -0.723364 -0.650117 -0.232577 26 30 25
-1.19142 0.404459 7.25514 -0.752792 -0.618945 -0.224077 24 28 23
-1.0824 0.400692 7.15914 0.0662372 0.252573 -0.965308 24 31 23
-0.972702 0.396765 7.18691 0.00382018 -0.556911 -0.830564 26 32 24
-0.95058 0.392633 7.19238 -0.449799 -0.765427 -0.460219 27 35 27
-0.886743 0.386784 7.04259 -0.102714 -0.687075 -0.71929 24 33 24
-0.822728 0.386405 7.05141 -0.988871 -0.0762226 -0.12777 27 32 25
-0.753576 0.381176 7.03618 0.0543796 -0.268658 -0.961699 28 36 29
-0.733175 0.385564 7.04831 0.037358 -0.170164 -0.984707 29 38 31
-0.7212 0.385651 7.0464 -0.28891 -0.348597 -0.891634 28 38 29
-0.481229 0.367762 6.79678 -0.436375 0.463022 -0.771484 30 36 31
-1.2926 0.424898 7.35364 0.0134116 -0.173528 -0.984738 26 31 27
-1.29201 0.425663 7.36616 -0.243091 -0.37553 -0.894362 23 28 23
-1.28969 0.42522 7.35557 0.170627 -0.255112 -0.951738 25 30 26
-1.27691 0.425242 7.35815 0.200165 -0.285678 -0.937188 27 31 27
-1.26541 0.414763 7.24232 0.356191 -0.465448 -0.810239 23 27 20
-1.24919 0.415171 7.25343 0.292754 -0.491257 -0.820342 22 27 21
-1.19941 0.413691 7.25588 -0.830329 -0.520754 -0.19842 26 30 27
-1.19073 0.410446 7.25687 -0.828963 -0.522911 -0.198455 26 31 26
-1.19964 0.414273 7.25485 -0.829354 -0.522286 -0.198468 27 31 27
-1.18944 0.411163 7.25569 -0.842251 -0.502659 -0.194799 27 31 27
-1.08775 0.411013 7.16326 0.342759 0.377021 -0.860448 15 21 16
-1.07685 0.410889 7.16152 0.0637186 0.254989 -0.964842 23 29 21
-0.996161 0.410815 7.21188 -0.821841 -0.497955 -0.276801 28 35 24
-0.972651 0.407807 7.17954 0.00143498 -0.562081 -0.827081 33 39 30
-0.960582 0.40134 7.18764 -0.535054 -0.265107 -0.802144 29 35 28
-0.963479 0.408554 7.17652 -0.116561 -0.727849 -0.675758 30 36 29
-0.794875 0.388608 7.01114 -0.535687 -0.623162 -0.569832 28 35 28
-0.585987 0.377134 6.87718 -0.267769 -0.840732 -0.470606 35 44 33
-0.513586 0.376326 6.82178 -0.83324 -0.289262 -0.47121 37 45 38
-0.483856 0.376796 6.81422 -0.328249 0.283212 -0.901135 40 46 41
-0.480176 0.376479 6.80557 -0.513664 0.352618 -0.782183 34 40 35
-0.482485 0.376242 6.7913 -0.636407 0.179267 -0.750233 30 36 31
-0.234664 0.359268 6.68461 -0.0164497 0.175476 -0.984346 46 44 35
-0.234544 0.359273 6.68471 -0.0143022 0.171636 -0.985057 46 44 35
-1.29445 0.434651 7.35717 -0.0335895 -0.0508029 -0.998144 25 30 26
-1.26834 0.436199 7.35791 -0.300104 -0.294646 -0.90726 27 30 26
-1.26844 0.427051 7.22725 0.279289 -0.599255 -0.75026 19 24 18
-1.25359 0.422941 7.23669 0.280489 -0.596129 -0.752301 18 23 18
-1.24851 0.42646 7.23772 0.299878 -0.476407 -0.826504 20 23 18
-1.08745 0.419661 7.16041 -0.271864 0.218045 -0.937308 19 26 17
-1.07745 0.419651 7.15716 -0.28572 0.188145 -0.939662 24 31 22
-1.06096 0.419848 7.1603 0.0272614 0.383761 -0.92303 27 33 25
-1.05959 0.419272 7.15258 0.026803 0.381982 -0.923781 26 32 23
-0.967562 0.415201 7.16919 -0.0984422 -0.701638 -0.705701 32 37 30
-0.958452 0.414529 7.16062 -0.597064 -0.692552 -0.404828 33 38 31
-0.484914 0.386007 6.82097 -0.865769 -0.482065 -0.134378 41 47 41
-0.483311 0.384863 6.79866 -0.898167 -0.422056 -0.123145 35 42 35
-0.489897 0.379511 6.78074 -0.899955 -0.420552 -0.114962 30 35 30
-0.481881 0.38565 6.81182 -0.802981 -0.576452 -0.15141 41 48 41
-0.254368 0.379432 6.80853 0.40653 -0.397412 -0.822677 25 28 24
-0.139197 0.379365 6.73443 0.0552969 -0.104035 -0.993035 67 67 58
-0.124611 0.378581 6.7408 -0.375073 -0.149667 -0.914833 83 82 72
-1.28439 0.43094 7.21418 0.0086481 -0.590883 -0.806711 24 28 23
-1.27233 0.430704 7.21671 0.31825 -0.510466 -0.798838 19 23 18
-0.998508 0.427271 7.15725 -0.49314 -0.812986 -0.309624 31 36 28
-0.970086 0.422543 7.15875 -0.132347 -0.74902 -0.649194 36 41 33
-0.968998 0.42285 7.15642 -0.112961 -0.72178 -0.682843 36 41 34
-0.5065 0.393054 6.81671 -0.695452 0.154873 -0.701685 36 43 35
-0.488855 0.395565 6.81192 -0.802885 -0.576587 -0.151404 39 47 36
-0.48809 0.390625 6.78588 -0.792799 -0.588898 -0.157065 35 42 34
-0.13276 0.38951 6.73798 0.0874385 -0.0693747 -0.993751 51 52 45
-0.0998681 0.389374 6.73763 0.234799 0.253043 -0.93853 55 53 49
-1.30651 0.456235 7.3366 0.175771 -0.398305 -0.900254 25 27 27
-1.29343 0.456235 7.33915 0.175668 -0.398573 -0.900156 26 28 29
-1.30523 0.443109 7.20951 0.382057 -0.417801 -0.824303 23 25 21
-1.27955 0.442405 7.21953 -0.12195 -0.503786 -0.855177 26 29 25
-1.28544 0.448522 7.2242 0.0814973 0.147639 -0.985678 29 32 29
-1.26849 0.440497 7.21639 -0.352123 -0.511051 -0.784115 17 20 17
-1.00923 0.433993 7.13503 -0.39682 -0.799284 -0.451308 31 35 28
-1.0028 0.432428 7.14008 -0.607849 -0.731465 -0.308997 32 36 29
-0.822187 0.423888 6.99451 -0.0215323 -0.499708 -0.865926 24 29 23
-0.67082 0.42156 6.95343 -0.954228 -0.0195044 -0.298444 37 44 33
-0.522333 0.412392 6.82238 -0.0938691 -0.615177 -0.782781 34 41 32
-0.491462 0.401709 6.80082 -0.817683 -0.557007 -0.145388 37 46 34
-0.224968 0.400075 6.79996 -0.341718 0.272103 -0.899549 32 35 28
-1.38659 0.459545 7.1932 0.327958 -0.538534 -0.77616 23 23 24
-1.33336 0.452003 7.19914 0.369237 0.267561 -0.889986 26 28 24
-1.32542 0.451539 7.19569 0.315612 0.461126 -0.829308 27 28 25
-1.31722 0.45669 7.2052 0.411617 0.237012 -0.879998 26 27 23
-1.30029 0.456852 7.21497 0.401571 0.268708 -0.875521 27 27 25
-1.01735 0.441925 7.13472 -0.399326 -0.838717 -0.37026 25 29 23
-1.00078 0.442688 7.12648 -0.251351 -0.859066 -0.445901 32 36 29
-0.877453 0.438685 7.04306 -0.827829 0.112182 -0.549649 27 33 26
-0.676578 0.431705 6.94803 -0.963786 0.227597 -0.138986 31 37 25
-0.520729 0.416849 6.81018 -0.569547 -0.424751 -0.703706 31 38 28
-0.127601 0.401582 6.73564 0.0687608 0.395557 -0.915864 42 43 39
-1.35538 0.47047 7.21776 0.293209 -0.591667 -0.750972 28 28 31
-1.28725 0.46564 7.21386 0.286172 -0.512744 -0.809444 30 30 33
-1.13407 0.470061 7.26904 -0.40264 -0.693745 -0.597159 33 34 37
-0.878065 0.447738 7.04647 -0.459552 -0.419973 -0.782582 30 35 28
-0.673969 0.436684 6.9388 -0.983347 0.131913 -0.125009 30 35 25
-0.654897 0.439282 6.93028 -0.938369 -0.325137 -0.117262 33 39 30
-1.38447 0.476014 7.18906 -0.178973 -0.856157 -0.48473 33 34 40
-1.3681 0.479494 7.18932 0.204018 -0.696659 -0.687781 36 37 42
-1.35332 0.479462 7.20503 -0.160876 -0.863788 -0.477483 43 43 48
-1.33802 0.472816 7.21136 -0.15228 -0.576467 -0.802806 45 45 47
-1.34092 0.474452 7.22191 -0.580903 -0.76459 -0.279202 45 46 49
-1.30691 0.477525 7.19498 0.390266 -0.399016 -0.829747 36 36 40
-1.34461 0.460318 6.90407 -0.687365 -0.668937 -0.282935 30 32 37
-1.35175 0.457373 6.88552 -0.481297 -0.82041 -0.308675 30 31 34
-1.26677 0.447488 6.75029 -0.88442 -0.434023 -0.171539 27 29 26
-1.21077 0.455491 6.86743 -0.812285 -0.550883 -0.191626 27 29 26
-0.884074 0.457263 7.04578 -0.210775 -0.18447 -0.959971 35 39 33
-0.877568 0.454329 7.03831 -0.794392 -0.431424 -0.427568 25 29 24
-0.876404 0.461851 7.03309 -0.447445 -0.584421 -0.676938 24 27 22
-0.873723 0.460767 7.03222 -0.376953 -0.473941 -0.795793 23 26 21
-0.851276 0.450007 7.00171 -0.0215702 -0.386458 -0.922055 18 20 18
-0.720088 0.448791 6.96445 -0.665382 -0.713817 -0.218474 18 21 16
-0.665583 0.442795 6.93264 -0.160102 -0.572258 -0.804293 32 37 29
-0.662834 0.448715 6.92613 -0.845088 -0.488135 -0.218061 33 37 30
-0.650245 0.443404 6.90993 -0.683086 -0.676623 -0.274909 27 31 26
-0.541579 0.439779 6.79201 -0.61408 -0.750455 -0.244383 29 37 27
-0.204883 0.429609 6.75766 -0.959491 -0.272681 -0.0708615 31 38 24
-1.39963 0.483176 7.14758 -0.0678164 -0.823937 -0.562609 52 55 62
-1.40529 0.479714 7.12884 0.157683 -0.699605 -0.696914 46 48 54
-1.38083 0.480324 7.12043 0.259808 -0.633745 -0.728606 42 42 47
-1.34794 0.483325 7.19497 -0.19115 -0.88093 -0.432925 41 43 48
-1.30349 0.487319 7.19234 -0.0999639 -0.838497 -0.535659 47 51 58
-1.44219 0.465854 6.82432 -0.485214 -0.776729 -0.401571 64 70 78
-1.34948 0.470273 6.91255 -0.556253 -0.774168 -0.302072 50 55 62
-1.35853 0.46507 6.84791 -0.234275 -0.856412 -0.460081 49 52 59
-1.25147 0.467207 6.88507 -0.101967 -0.790171 -0.604344 26 27 32
-1.28411 0.456679 6.76093 -0.682468 -0.691825 -0.235831 26 27 28
-1.28241 0.453994 6.74915 -0.852193 -0.490612 -0.181845 27 28 27
-1.27542 0.460771 6.7602 -0.850971 -0.492706 -0.181905 29 30 32
-1.27418 0.45092 6.74949 -0.884279 -0.434176 -0.171876 27 29 26
-1.2799 0.460012 6.74977 -0.852991 -0.489616 -0.180785 30 31 33
-0.845639 0.470107 7.00293 -0.657127 -0.263053 -0.70639 36 38 36
-0.850332 0.463259 7.00763 -0.709311 0.182613 -0.68083 25 27 24
-0.846359 0.460142 7.00292 0.040698 0.22614 -0.973244 22 23 22
-0.840401 0.465077 6.99819 -0.803739 -0.0261703 -0.594407 23 25 23
-0.718143 0.45786 6.95601 -0.719882 -0.648847 -0.24651 22 26 20
-0.713924 0.458212 6.94703 0.00968561 0.184976 -0.982695 20 24 19
-0.671024 0.463088 6.93699 -0.849199 -0.507316 -0.1466 25 27 22
-0.667673 0.461367 6.92753 -0.847678 -0.50994 -0.146301 27 29 24
-0.671067 0.456896 6.93288 -0.937415 -0.322223 -0.132005 25 27 22
-0.666246 0.458889 6.92745 -0.850325 -0.505513 -0.146301 27 30 25
-0.66502 0.453115 6.93702 -0.882759 -0.441155 -0.161611 26 29 24
-0.663516 0.460929 6.91315 -0.72419 -0.334641 -0.602963 31 33 27
-0.660282 0.454881 6.92146 -0.874399 -0.265862 -0.405886 34 37 31
-0.655436 0.453052 6.90774 -0.860266 -0.310329 -0.404521 34 38 32
-0.547279 0.44635 6.77897 -0.620205 -0.751653 -0.22442 29 37 26
-0.538959 0.442792 6.78429 -0.668444 -0.713689 -0.209358 28 37 25
-0.2188 0.442463 6.73739 -0.959947 -0.271073 -0.0708537 35 41 26
-1.38703 0.487698 7.12569 0.108161 -0.776198 -0.621143 54 58 66
-1.38124 0.488805 7.1118 -0.409615 -0.614659 -0.674099 63 69 78
-1.35338 0.488249 7.14839 -0.124584 -0.876719 -0.464589 46 49 56
-1.40044 0.469992 6.80024 -0.315091 -0.856742 -0.408303 70 76 85
-1.37303 0.470765 6.81182 -0.283563 -0.870478 -0.402319 68 73 81
-1.35618 0.475363 6.82331 -0.527733 -0.796389 -0.295404 69 77 85
-1.33899 0.471632 6.82722 -0.875125 -0.448645 -0.18131 69 74 82
-1.29447 0.463105 6.7788 0.184803 -0.63517 -0.749938 30 31 36
-1.28951 0.465547 6.77191 -0.62914 -0.734119 -0.255444 45 47 51
-1.2982 0.469664 6.75776 -0.352914 -0.861206 -0.365753 60 63 70
-1.28397 0.463392 6.75852 -0.832582 -0.48389 -0.269552 35 36 40
-1.26917 0.463484 6.75265 -0.135249 -0.876054 -0.462857 28 29 33
-1.28788 0.45835 6.69645 -0.818282 -0.540556 -0.195485 30 32 34
-0.932782 0.483515 7.07431 -0.291643 -0.856895 -0.425059 28 29 29
-0.853475 0.472388 7.00831 -0.691944 0.0813606 -0.717352 32 34 32
-0.839849 0.474438 6.99745 -0.860947 0.099322 -0.498904 30 31 30
-0.719879 0.473946 6.94257 -0.851994 0.109335 -0.512008 16 19 17
-0.673732 0.465198 6.9356 -0.860196 -0.467293 -0.204206 24 26 21
-0.669966 0.467076 6.91713 -0.847325 -0.510534 -0.146272 29 31 25
-0.240711 0.457668 6.8193 0.0532154 -0.460327 -0.886153 25 28 21
-0.221554 0.449343 6.74832 -0.983998 -0.165411 -0.0662338 52 58 40
-0.22166 0.449403 6.72154 -0.950022 0.292348 -0.109504 44 49 34
-1.30684 0.472232 6.76221 -0.522512 -0.762193 -0.382156 65 69 76
-1.3103 0.479332 6.7511 0.0157796 -0.728641 -0.684714 67 74 83
-1.29802 0.472206 6.75351 -0.153483 -0.803597 -0.575044 66 70 78
-1.28089 0.473121 6.74776 -0.351906 -0.859997 -0.36955 63 68 76
-1.30281 0.468717 6.6564 -0.481384 -0.685184 -0.546619 54 58 65
-0.943408 0.492134 7.0745 -0.186728 -0.788553 -0.585932 32 35 38
-0.893729 0.492232 7.02483 -0.493537 -0.778296 -0.388171 32 35 39
-0.879291 0.490545 6.99783 -0.33919 -0.832052 -0.438908 32 35 38
-0.874521 0.483381 7.0179 -0.468146 -0.732274 -0.494585 24 26 28
-0.877558 0.492183 7.02525 -0.589041 -0.706879 -0.391604 32 34 39
-0.870735 0.488829 6.99513 -0.371264 -0.821054 -0.433629 33 36 39
-0.851667 0.484703 6.99694 -0.507822 -0.676108 -0.533849 36 36 39
-0.846563 0.483481 6.97984 -0.168244 -0.776928 -0.606693 27 27 29
-0.840454 0.484405 6.97492 -0.822594 -0.377399 -0.425334 22 22 23
-0.766078 0.480858 6.94559 -0.581358 -0.327369 -0.744884 21 24 20
-0.687234 0.475968 6.90144 -0.0494517 -0.719576 -0.69265 25 26 22
-0.676262 0.472192 6.89676 -0.845874 -0.513055 -0.14585 29 31 26
-0.676262 0.472192 6.89676 -0.845874 -0.513055 -0.14585 29 31 26
-0.657932 0.476682 6.87836 0.101236 -0.531043 -0.841276 28 30 27
-0.628604 0.472744 6.90561 -0.117874 -0.283989 -0.951555 29 32 26
-0.223481 0.457735 6.76388 -0.986398 -0.150478 -0.0661557 56 61 44
-1.32769 0.480405 6.63891 0.306127 0.424034 -0.852339 63 70 80
-1.31507 0.475699 6.64622 0.10572 -0.525308 -0.844319 67 74 83
-1.30248 0.476116 6.64804 0.138547 -0.677672 -0.722195 66 72 80
-0.950119 0.496042 6.9812 -0.149314 -0.878005 -0.454766 44 48 56
-0.870686 0.496143 6.98134 -0.362455 -0.820002 -0.44297 49 52 57
-0.851957 0.49197 6.98036 -0.311811 -0.866269 -0.390322 33 34 38
-0.839726 0.491273 6.97227 -0.422359 -0.774858 -0.470328 21 22 25
-0.826995 0.493086 6.96301 -0.213684 -0.821989 -0.527896 21 21 26
-0.770199 0.490175 6.94799 -0.737005 -0.62646 -0.253715 27 28 28
-0.716018 0.489528 6.92554 -0.741766 -0.643905 -0.187538 19 19 20
-0.702876 0.489602 6.92826 0.195738 -0.581064 -0.789969 17 18 17
-0.702264 0.490394 6.92097 0.0325904 -0.599257 -0.799893 21 22 21
-0.678271 0.483683 6.89068 0.132261 -0.48427 -0.864864 24 24 21
-1.35502 0.516017 7.09556 -0.593326 -0.505887 -0.626133 70 81 91
-1.34921 0.515607 7.08736 -0.00237498 -0.619289 -0.78516 69 81 90
-1.34847 0.520075 7.07531 0.00580132 -0.601278 -0.799019 67 78 88
-1.22641 0.522681 7.12193 0.154021 -0.54993 -0.820887 68 78 89
-0.964199 0.502955 6.97835 -0.227002 -0.888735 -0.398272 58 65 73
-0.900322 0.50531 6.95373 -0.460313 -0.623908 -0.631547 64 71 79
-0.738301 0.495436 6.92565 -0.882683 -0.449205 -0.138147 33 32 35
-0.686519 0.493662 6.85831 -0.395578 -0.53522 -0.746363 33 34 34
-0.676101 0.492671 6.88207 0.125165 -0.49811 -0.858033 28 28 28
-0.669584 0.491528 6.86637 -0.297881 -0.657174 -0.692379 33 34 32
-0.671875 0.489596 6.8677 -0.363443 -0.581859 -0.727564 29 29 29
-0.6285 0.498418 6.86167 -0.186085 -0.519763 -0.833798 34 35 32
-0.380464 0.495404 6.89769 -0.140392 -0.600664 -0.787079 23 24 22
-0.367709 0.492285 6.87754 -0.14679 -0.589414 -0.794383 24 25 22
-0.344042 0.491881 6.89609 -0.380206 -0.387639 -0.83975 24 26 24
-0.241554 0.485065 6.74487 -0.987368 -0.124816 -0.0976006 32 33 25
-0.239936 0.484374 6.74941 -0.987361 -0.143981 -0.066244 31 32 24
-1.34904 0.524438 7.06082 0.132461 -0.488727 -0.862323 64 75 84
-0.98889 0.519776 7.01969 -0.304041 -0.852778 -0.424651 59 69 78
-0.731332 0.506383 6.9089 -0.749668 -0.490674 -0.444114 30 31 35
-0.69027 0.503121 6.85662 0.100068 -0.708231 -0.698852 35 36 40
-0.61942 0.500972 6.79076 -0.688384 -0.695384 -0.20632 39 43 43
-0.339016 0.487628 6.61374 -0.342537 0.315925 -0.884794 47 47 37
-0.231959 0.486755 6.74472 -0.836661 -0.535263 -0.116157 37 39 30
-1.31283 0.535952 7.05562 0.384739 0.285423 -0.877787 60 70 79
-0.899047 0.521411 6.8785 -0.0153991 0.390301 -0.920559 65 76 84
-0.677104 0.516312 6.81953 -0.87324 -0.462798 -0.152543 67 71 78
-0.646405 0.515242 6.8098 -0.378866 -0.735971 -0.561077 59 65 70
-0.419348 0.511723 6.8497 0.161633 -0.670575 -0.72402 28 28 29
-1.30116 0.552651 7.10909 0.356449 0.182948 -0.916228 58 68 77
-1.17447 0.549315 7.07044 -0.667794 -0.677384 -0.308549 64 73 83
-0.701449 0.52293 6.81088 -0.863949 -0.484771 -0.136344 72 81 89
-0.687365 0.525116 6.79306 -0.809482 -0.566766 -0.153345 67 75 85
-0.394251 0.524276 6.8404 0.455548 -0.494864 -0.73999 47 49 55
-0.417057 0.508984 6.66425 -0.964121 -0.136549 -0.227653 40 41 44
-0.41794 0.503925 6.65165 -0.844096 -0.387898 -0.370185 34 32 35
-0.00437763 0.516696 6.83572 -0.0663118 -0.701378 -0.709698 31 30 29
-1.18543 0.555236 7.06774 -0.101272 -0.666269 -0.738803 65 75 84
-1.18623 0.558275 7.0463 -0.330779 -0.874891 -0.353767 64 72 81
-1.18544 0.556217 7.04761 -0.39725 -0.855959 -0.330947 63 72 81
-0.838764 0.53966 6.85266 -0.852959 0.00232516 -0.521973 66 77 86
-0.430716 0.530291 6.80373 -0.202469 -0.875383 -0.438987 64 72 80
-0.41546 0.519904 6.66758 -0.9764 -0.199716 -0.0821983 70 76 83
-0.421182 0.513677 6.65293 -0.899853 -0.344514 -0.267536 60 63 68
-0.255773 0.523393 6.76659 -0.818648 0.187528 -0.542816 59 61 64
-0.269908 0.523637 6.72174 -0.584872 0.618878 -0.524324 73 76 81
-1.19199 0.563401 7.05034 -0.310817 -0.679262 -0.664828 59 68 76
-0.857157 0.54863 6.87404 -0.506943 -0.81606 -0.277588 59 68 77
-0.854445 0.548216 6.85683 -0.449903 -0.837007 -0.311461 52 63 72
-0.286186 0.538352 6.81762 -0.34941 -0.638057 -0.686146 68 77 87
-0.263802 0.531119 6.76956 -0.780127 -0.410885 -0.471779 94 97 103
-0.953477 0.562487 6.92383 -0.552283 -0.741723 -0.380566 66 75 84
-0.951956 0.563795 6.92636 -0.792356 -0.561684 -0.238082 66 75 84
-0.943658 0.562027 6.9163 -0.509605 -0.651887 -0.561557 67 77 86
-0.904307 0.563787 6.87536 -0.73918 -0.613109 -0.278765 60 70 79
-0.859356 0.553993 6.85621 -0.541508 -0.753699 -0.372433 52 61 70
-0.792269 0.55352 6.81439 -0.391038 -0.839373 -0.377547 68 75 82
-0.777911 0.553284 6.80513 -0.304609 -0.854381 -0.421007 92 97 103
-0.483659 0.547405 6.79848 -0.887711 -0.446594 -0.111909 74 87 97
-0.26531 0.539536 6.76787 -0.575078 -0.681563 -0.452501 73 80 90
-1.06576 0.58136 6.96011 0.000636309 -0.547837 -0.836585 59 69 78
-0.960893 0.574393 6.8888 -0.287385 -0.826283 -0.484424 56 65 75
-0.954749 0.569724 6.8864 -0.348315 -0.742165 -0.572597 60 70 79
-0.95537 0.568469 6.89449 -0.939126 -0.244993 -0.240877 60 70 79
-0.874208 0.563049 6.85026 -0.393841 -0.779743 -0.486714 57 66 75
-0.86754 0.57124 6.84721 -0.341 -0.639588 -0.688946 53 61 70
-0.776646 0.560746 6.78992 -0.287759 -0.87174 -0.396565 75 82 89
-0.770446 0.563715 6.77493 -0.269774 -0.867413 -0.418112 78 85 93
-0.536799 0.552976 6.69762 -0.670566 -0.654618 -0.349022 65 76 85
-1.07566 0.585014 6.94177 0.00919303 -0.545846 -0.837835 57 66 75
-1.0395 0.579718 6.9276 -0.267687 -0.8434 -0.465854 57 66 75
-1.04369 0.587322 6.91061 -0.286875 -0.855259 -0.43155 51 60 70
-1.03061 0.580017 6.91558 -0.521218 -0.808243 -0.273999 53 63 72
-0.952515 0.578169 6.87842 -0.433702 -0.770534 -0.467097 57 66 75
-0.881286 0.574066 6.83746 -0.513359 -0.77973 -0.358447 61 70 79
-0.744606 0.571317 6.7594 -0.525002 -0.810043 -0.261157 72 80 88
-0.351105 0.564526 6.71209 0.152847 -0.556656 -0.816561 63 71 80
-1.39983 0.616371 7.10931 0.362139 -0.335104 -0.869805 54 64 73
-1.38665 0.616282 7.11405 0.352447 -0.365632 -0.861449 55 64 73
-0.283744 0.567348 6.69428 -0.204563 -0.835251 -0.510402 64 73 81
-0.263433 0.569243 6.65097 -0.754349 -0.468801 -0.459547 73 84 93
-1.38089 0.626771 7.11205 0.331154 -0.434252 -0.837712 49 57 67
-1.38234 0.625207 7.09645 0.366333 -0.31653 -0.874991 48 56 66
-0.87373 0.592556 6.81904 -0.284563 -0.866128 -0.41091 52 63 73
-0.781315 0.586916 6.75565 -0.570294 -0.453808 -0.684707 65 73 82
-0.455426 0.580882 6.68336 -0.885895 -0.451845 -0.105006 66 75 84
-0.298244 0.574621 6.65656 -0.220489 -0.832825 -0.507728 58 69 76
-0.312601 0.576815 6.60015 -0.119533 -0.853274 -0.507579 57 66 74
-0.310721 0.577029 6.60313 -0.163936 -0.876938 -0.45178 57 66 74
-0.292877 0.569609 6.6135 -0.806526 -0.578488 -0.121931 72 84 92
-0.301996 0.570413 6.56694 -0.94179 -0.328403 -0.0719984 66 77 85
-1.42032 0.627005 7.082 0.364593 -0.330702 -0.870464 50 59 70
-1.41976 0.62697 7.08239 0.359798 -0.3435 -0.867498 50 60 70
-1.40727 0.626798 7.08613 0.354946 -0.361763 -0.862056 50 59 69
-1.40681 0.626956 7.08723 0.360488 -0.340288 -0.868477 50 59 69
-0.986134 0.606655 6.84663 -0.837665 -0.184804 -0.51397 57 67 76
-0.796713 0.59826 6.73834 -0.188747 -0.868369 -0.458595 61 70 79
-0.790423 0.594707 6.75097 -0.429009 -0.699446 -0.5716 61 71 80
-0.776496 0.59832 6.73243 -0.209987 -0.821577 -0.530016 75 83 91
-0.719879 0.594878 6.66211 -0.278619 -0.889499 -0.362163 63 73 83
-0.710481 0.586617 6.66219 -0.371229 -0.770938 -0.517536 68 79 89
-0.518531 0.586444 6.67897 0.275852 -0.321108 -0.905978 63 71 80
-0.463538 0.588581 6.68246 -0.900218 -0.422544 -0.105185 61 70 79
-0.451327 0.59298 6.65449 -0.862481 -0.124382 -0.490567 69 77 86
-0.451064 0.583127 6.65209 -0.995343 -0.0527656 -0.0806692 76 85 92
-0.450502 0.58892 6.64128 -0.615461 0.667812 -0.418612 76 85 91
-0.339244 0.585546 6.65048 -0.471495 -0.762873 -0.442399 62 71 79
-0.319855 0.58037 6.63415 -0.382985 -0.586342 -0.713811 62 73 82
-1.38535 0.638842 7.10459 0.331426 -0.435121 -0.837154 47 57 67
-1.379 0.639642 7.09749 0.184561 -0.40831 -0.893991 52 62 72
-1.25117 0.630757 6.9236 -0.518056 -0.808421 -0.279416 54 63 73
-1.23421 0.625949 6.93339 -0.00966868 -0.82915 -0.558943 59 69 78
-1.22487 0.630037 6.91755 0.326117 -0.518526 -0.79043 55 64 74
-1.18158 0.631003 6.96944 0.395857 -0.31268 -0.86344 55 63 73
-0.989616 0.615498 6.84614 -0.82045 -0.248691 -0.514796 57 67 77
-0.979708 0.612592 6.8421 -0.946484 -0.294462 -0.13214 56 66 76
-0.961314 0.613342 6.82325 -0.495394 -0.729025 -0.472342 57 66 76
-0.909587 0.614728 6.80774 0.122408 -0.545746 -0.828962 56 65 74
-0.792569 0.60687 6.73452 -0.18649 -0.86788 -0.460441 62 71 80
-0.782034 0.606938 6.73194 -0.210745 -0.82361 -0.526548 65 74 82
-0.722476 0.602632 6.65264 -0.289202 -0.889151 -0.354644 62 71 81
-0.467237 0.596383 6.66602 -0.93489 -0.31738 -0.158907 60 67 77
-1.41443 0.651504 7.04632 0.129737 -0.740825 -0.65905 50 61 71
-1.38336 0.650115 7.09312 0.257757 -0.377045 -0.889606 50 61 72
-1.22472 0.636874 6.93268 0.229669 -0.599155 -0.766985 56 65 75
-1.22323 0.636176 6.93119 0.334076 -0.504387 -0.796233 55 64 73
-1.1906 0.639366 6.97347 0.302853 -0.454086 -0.837906 54 62 73
-1.04421 0.626219 6.88048 -0.221711 -0.560959 -0.797602 58 67 76
-0.991436 0.624465 6.84669 -0.859154 -0.377801 -0.345139 61 71 81
-0.973579 0.621185 6.8191 -0.0913858 -0.129511 -0.987358 59 69 80
-0.965225 0.629623 6.81102 -0.744854 -0.261097 -0.61402 56 66 76
-0.935749 0.62372 6.82055 -0.193496 -0.83365 -0.517288 56 64 74
-0.939807 0.622712 6.81979 0.0387708 -0.676989 -0.734971 54 63 72
-0.910083 0.622005 6.80798 -0.622921 -0.747912 -0.229342 62 71 81
-0.900295 0.621072 6.8015 -0.431295 -0.792639 -0.430939 54 62 72
-0.818707 0.620761 6.73284 -0.299808 -0.874281 -0.38177 60 71 80
-0.774708 0.616821 6.7033 -0.823076 -0.276437 -0.496113 75 82 91
-0.682941 0.609744 6.64499 -0.572108 -0.782685 -0.245147 63 73 83
-0.532316 0.607424 6.65079 0.287578 -0.360736 -0.887225 55 63 71
-0.516989 0.610405 6.65023 -0.285224 -0.653384 -0.70124 54 62 70
-1.05601 0.642117 6.86954 -0.622862 -0.47325 -0.622959 54 64 73
-1.04598 0.635597 6.87125 -0.275625 -0.646361 -0.711511 56 65 74
-1.03432 0.636016 6.8597 -0.283208 -0.819096 -0.498874 54 64 73
-0.963405 0.63752 6.80488 -0.633224 -0.286068 -0.719161 51 60 71
-0.968767 0.638455 6.8116 -0.664168 -0.299985 -0.684755 56 66 76
-0.95557 0.62968 6.80693 -0.55345 -0.43733 -0.708826 51 60 71
-0.955237 0.63741 6.79876 -0.49865 0.0276686 -0.866362 59 68 78
-0.950987 0.629168 6.79593 -0.463451 -0.0260098 -0.885741 59 68 78
-0.947209 0.637373 6.79349 -0.707843 -0.133747 -0.693592 62 71 82
-0.910165 0.629042 6.77737 -0.527352 -0.741216 -0.415329 57 67 76
-0.908683 0.631902 6.77596 -0.273958 -0.808539 -0.52078 58 69 78
-0.666127 0.615418 6.60986 -0.190555 -0.884778 -0.425272 61 71 80
-0.668624 0.616798 6.62511 -0.347854 -0.878642 -0.327087 62 74 83
-0.552341 0.617989 6.64778 -0.245616 -0.346595 -0.905287 51 58 67
-0.540202 0.617902 6.65427 -0.10883 -0.466486 -0.877808 57 67 75
-0.466283 0.615979 6.62467 -0.795384 -0.590892 -0.134951 52 61 70
-0.949753 0.639655 6.78906 -0.896982 -0.148933 -0.416224 64 73 84
-0.910501 0.640645 6.76918 -0.549356 -0.688645 -0.473261 59 69 78
-0.898828 0.641162 6.75637 -0.601286 0.112797 -0.791033 55 65 75
-0.527147 0.627078 6.63747 -0.47605 -0.835768 -0.27362 55 65 73
-1.02922 0.66129 6.82152 -0.048931 -0.660722 -0.749034 54 65 74
-0.958244 0.650759 6.79688 -0.247258 -0.701531 -0.668369 58 67 77
-0.954401 0.649799 6.80296 -0.416683 -0.390032 -0.821127 58 68 77
-0.943556 0.648063 6.77074 -0.775061 -0.485774 -0.404109 57 68 77
-0.900663 0.651834 6.75573 0.0381164 -0.346805 -0.937162 58 67 77
-0.534127 0.634229 6.61567 -0.622195 -0.6245 -0.472094 50 59 69
-0.523251 0.631305 6.61755 -0.357845 -0.607985 -0.708732 56 66 75
-0.523311 0.640279 6.60971 -0.35391 -0.612791 -0.706566 56 66 76
-0.495418 0.637367 6.61484 -0.709033 -0.327555 -0.624484 56 67 77
-1.10859 0.673343 6.87367 -0.211806 -0.274935 -0.937843 56 66 76
-1.10859 0.673343 6.87367 -0.211806 -0.274935 -0.937843 56 66 76
-1.0268 0.664351 6.80881 -0.0211644 -0.605479 -0.79558 54 64 74
-0.540526 0.642955 6.61809 -0.640945 -0.407722 -0.650348 54 62 73
-0.53333 0.649511 6.60665 0.142639 -0.548198 -0.824095 56 65 75
-0.522879 0.649511 6.60269 -0.308547 -0.491391 -0.814453 59 68 79
-0.510727 0.64523 6.59173 -0.238211 -0.881043 -0.40868 56 68 78
-0.499986 0.643362 6.59151 -0.122995 -0.866125 -0.484458 56 68 76
-0.00286969 0.640593 6.57867 -0.154416 -0.722745 -0.673643 56 61 70
-1.12252 0.677726 6.8555 -0.152036 -0.624996 -0.76568 56 66 76
-0.510166 0.648005 6.56645 0.249322 -0.317885 -0.914761 55 66 75
-0.499994 0.65228 6.55685 0.180384 -0.569982 -0.801612 54 63 73
-1.18149 0.692454 6.87019 -0.176977 -0.179703 -0.96767 57 67 78
-1.17548 0.692094 6.86568 -0.0168675 -0.156247 -0.987574 58 69 79
-1.12271 0.689705 6.8469 -0.12829 -0.790528 -0.598838 56 65 76
-0.925053 0.681322 6.74725 -0.0488572 -0.675546 -0.735698 54 63 74
-0.915143 0.675736 6.74995 -0.00109586 -0.686426 -0.727199 51 60 71
-0.557547 0.665481 6.59302 -0.864818 -0.110932 -0.489678 50 60 69
-0.53808 0.66705 6.59685 -0.449487 -0.614571 -0.648278 54 64 74
-0.514171 0.659994 6.54664 -0.287753 -0.362199 -0.886572 48 58 66
-0.484887 0.661961 6.5639 0.132018 -0.650022 -0.74836 47 56 65
-1.18225 0.701557 6.8724 -0.211409 -0.222177 -0.951811 55 65 75
-1.18245 0.700648 6.86356 -0.190278 -0.31539 -0.92969 59 69 79
-1.02825 0.69674 6.78782 -0.568774 -0.762533 -0.308286 49 59 71
-0.976586 0.688706 6.76569 -0.850989 -0.444133 -0.280294 57 67 76
-0.983397 0.692332 6.77189 -0.798966 -0.451507 -0.397235 51 60 72
-0.924716 0.689244 6.73894 -0.538394 -0.750587 -0.38308 51 59 70
-0.914952 0.689103 6.72935 -0.683131 -0.702587 -0.199259 48 58 68
-0.54906 0.674187 6.594 -0.571316 -0.476352 -0.668346 50 58 69
-0.509235 0.665701 6.54592 -0.501739 -0.631278 -0.591393 44 54 63
-0.509463 0.669647 6.55663 -0.396984 -0.773359 -0.494287 46 58 67
-1.04731 0.706393 6.79572 -0.756765 -0.557363 -0.341545 54 65 76
-1.04397 0.702484 6.79415 -0.543844 -0.696109 -0.468686 52 63 74
-1.02998 0.703524 6.77908 -0.571512 -0.763483 -0.300779 49 60 71
-0.994079 0.701763 6.76591 -0.513872 -0.11205 -0.850518 52 62 72
-0.977428 0.69792 6.76446 -0.707293 0.0141794 -0.706778 58 68 79
-0.964636 0.698543 6.75856 -0.357375 -0.767476 -0.532226 56 66 75
-0.93857 0.696839 6.73403 -0.653999 -0.609055 -0.448707 53 62 73
-0.929055 0.695952 6.72734 -0.677817 -0.706539 -0.203388 48 57 67
-0.926062 0.695944 6.72661 -0.589926 -0.773054 -0.233182 47 56 67
-0.560243 0.681815 6.58921 0.289832 -0.239268 -0.926687 55 64 74
-1.04128 0.710717 6.79077 -0.820801 0.0711327 -0.566769 51 62 73
-1.04619 0.709439 6.78385 -0.193288 -0.619725 -0.760644 50 61 72
-1.0432 0.717258 6.77811 -0.113291 -0.630035 -0.768258 51 61 72
-1.0296 0.710208 6.77171 -0.694431 -0.564241 -0.44654 50 61 72
-1.03251 0.717489 6.77647 -0.599027 -0.570547 -0.561821 47 57 67
-0.990152 0.710467 6.76058 -0.752824 -0.448935 -0.481366 55 64 75
-0.981578 0.70674 6.75931 -0.955843 -0.16419 -0.243733 58 67 78
-0.978292 0.712091 6.75369 -0.88075 -0.33708 -0.332652 55 63 74
-0.937118 0.704104 6.727 -0.555217 -0.790974 -0.257089 55 65 75
-0.929153 0.702658 6.71549 -0.563013 -0.790345 -0.241602 50 60 71
-0.85787 0.704934 6.68359 -0.755413 -0.127882 -0.642649 49 58 68
-0.612747 0.68616 6.45073 0.257414 -0.377415 -0.889548 50 59 69
-1.15607 0.730858 6.88487 -0.0514286 0.409312 -0.910944 56 66 77
-1.11878 0.732303 6.83717 -0.517961 -0.328748 -0.78971 57 68 79
-1.12236 0.730762 6.82565 -0.200548 -0.554556 -0.807619 55 65 76
-1.11311 0.724796 6.82688 -0.726886 -0.495329 -0.475695 55 64 76
-1.11201 0.731283 6.81963 -0.0463347 -0.305493 -0.951066 51 60 72
-1.06062 0.723081 6.77787 -0.198834 -0.899151 -0.389862 48 57 68
-1.04571 0.725366 6.76867 -0.142714 -0.86883 -0.474095 44 53 64
-1.03025 0.719009 6.76329 -0.311729 -0.628269 -0.712814 53 63 74
-0.983063 0.716271 6.75949 -0.941288 -0.23602 -0.241395 57 66 77
-0.423587 0.700824 6.52963 0.234045 -0.561808 -0.79347 53 62 72
-0.407986 0.693665 6.51913 -0.572706 -0.790681 -0.216406 49 58 69
-1.12144 0.737706 6.83133 -0.276814 -0.698865 -0.659516 54 64 75
-1.03601 0.73482 6.75542 -0.520102 -0.183748 -0.834105 47 58 68
-1.02926 0.728513 6.7557 -0.174712 -0.64705 -0.74216 53 63 73
-0.43398 0.709141 6.52248 -0.691143 -0.538508 -0.482007 50 60 69
-0.422569 0.708335 6.52263 0.142158 -0.693258 -0.70653 46 55 66
-0.409558 0.703533 6.52817 -0.367576 -0.854256 -0.367606 52 60 71
-1.04153 0.737257 6.76165 -0.553149 -0.284706 -0.782923 44 55 66
-1.0496 0.743884 6.75552 0.0536839 0.0361563 -0.997903 48 58 69
-1.03833 0.743873 6.75599 0.0479691 0.0469896 -0.997743 48 58 68
-1.02387 0.738423 6.7508 0.0208956 -0.0402847 -0.99897 56 66 76
-1.03305 0.741411 6.7496 -0.801368 -0.329616 -0.499162 53 63 74
-0.979777 0.739873 6.74448 -0.306573 -0.887604 -0.343763 54 64 75
-0.93601 0.734166 6.70294 -0.186855 -0.837756 -0.51308 45 56 66
-0.450278 0.71789 6.50621 -0.70984 -0.593494 -0.379331 51 60 70
-0.44743 0.716887 6.50893 -0.563203 -0.713934 -0.416053 52 62 72
-0.44743 0.716887 6.50893 -0.563203 -0.713934 -0.416053 52 62 72
-0.433046 0.71768 6.5117 0.132741 -0.706735 -0.694914 48 57 67
-1.11496 0.750507 6.80435 -0.0202776 -0.565833 -0.82427 55 65 76
-1.03453 0.747597 6.74716 -0.230035 -0.403556 -0.885566 52 62 73
-0.899916 0.742356 6.67535 0.074461 -0.531433 -0.843821 50 62 72
-0.493416 0.727117 6.49559 -0.333531 -0.809226 -0.483643 47 57 66
-0.468389 0.728564 6.50033 -0.238323 -0.893541 -0.380508 50 60 70
-1.11382 0.761931 6.7805 0.00484085 -0.565389 -0.82481 56 66 78
-1.03295 0.756793 6.74963 0.0288742 -0.262304 -0.964553 50 61 71
-1.03261 0.758449 6.7303 0.127581 -0.00343558 -0.991822 49 59 69
-1.03044 0.756053 6.74211 -0.758853 -0.416507 -0.500664 51 61 71
-1.03941 0.761371 6.72741 -0.497797 -0.653835 -0.569823 49 61 71
-1.03941 0.761371 6.72741 -0.497797 -0.653835 -0.569823 52 64 74
-1.01905 0.758612 6.73326 0.14306 0.037774 -0.988993 52 62 73
-1.01844 0.758678 6.73375 0.142019 0.0370574 -0.98917 52 62 73
-1.01844 0.758678 6.73375 0.142019 0.0370574 -0.98917 52 62 73
-0.923841 0.750465 6.68067 -0.84491 -0.515669 -0.142172 51 62 72
-0.925955 0.751633 6.66664 0.0138195 -0.550703 -0.834587 50 60 70
-0.897664 0.75459 6.67043 0.113141 -0.0952379 -0.989004 48 60 69
-0.893169 0.749797 6.65617 -0.218798 -0.760357 -0.611543 55 66 76
-0.504029 0.734752 6.50013 -0.868214 -0.485915 -0.100452 55 65 74
-0.20293 0.724149 6.43499 0.290012 -0.59902 -0.74637 45 53 62
-0.204637 0.728163 6.42419 -0.357063 -0.455255 -0.815628 46 54 63
-1.12198 0.767952 6.77908 -0.818993 -0.549622 -0.164821 60 71 82
-1.11899 0.772763 6.76925 -0.0693574 -0.719178 -0.691356 57 68 79
-1.03042 0.767712 6.72803 -0.13326 -0.139132 -0.981267 53 64 76
-0.899579 0.759035 6.65903 -0.719777 -0.511363 -0.469498 53 64 74
-0.208968 0.736908 6.42609 -0.0231496 -0.634322 -0.772722 45 54 62
-0.200674 0.736671 6.41911 -0.296242 -0.568072 -0.767812 49 58 67
-1.12599 0.777841 6.75912 -0.748169 -0.359592 -0.557617 58 68 79
-0.930469 0.768327 6.65471 0.098316 0.208402 -0.973089 54 66 76
-0.899522 0.765618 6.65086 -0.808543 -0.319305 -0.494269 53 64 74
-0.902447 0.771235 6.64833 -0.864514 -0.154282 -0.478343 54 64 75
-0.209227 0.742945 6.4209 -0.271676 -0.530463 -0.802995 45 54 63
-0.201214 0.745961 6.41111 -0.221601 -0.589868 -0.776497 48 58 65
-1.02702 0.784322 6.73002 -0.46959 -0.820685 -0.325516 49 60 72
-0.93513 0.777579 6.64796 0.103211 0.186621 -0.976995 56 67 78
-0.925427 0.782863 6.64296 0.104411 0.17115 -0.979697 57 67 78
-1.02365 0.794125 6.73703 -0.749632 -0.38534 -0.538112 49 58 69
-1.02785 0.804345 6.73881 -0.921666 0.334389 -0.196762 46 57 67
1.22032 -2.18576 9.0774 0.175278 0.512148 -0.840822 95 94 83
0.835872 -2.1598 9.36856 -0.152442 0.727588 -0.668863 87 88 82
1.09314 -2.15906 9.15223 -0.981971 0.184243 -0.0422685 70 66 67
0.662686 -2.14004 9.42725 -0.778685 0.62664 -0.031181 86 86 81
0.662578 -2.14002 9.42714 -0.777848 0.627681 -0.0311275 86 86 81
0.775517 -2.14756 9.42214 -0.611557 0.785734 -0.0928492 87 88 83
0.973532 -2.14157 9.21156 0.0897368 -0.312322 -0.945728 87 88 83
0.975444 -2.14513 9.22921 0.0854307 -0.324768 -0.941927 85 86 80
1.04524 -2.14813 9.17826 -0.997486 -0.0139483 -0.0694714 103 111 119
1.12867 -2.14831 9.1016 -0.880522 0.472256 -0.0406938 67 68 68
0.794921 -2.13612 9.3959 0.0173218 0.84071 -0.541208 80 81 76
1.16693 -2.13643 9.08064 -0.23618 0.926364 -0.293376 88 87 80
0.216421 -2.08534 9.58149 -0.66529 0.74017 -0.0976612 86 86 82
0.833214 -2.13078 9.4905 -0.613398 0.784451 -0.0915435 82 82 78
1.07274 -2.1229 9.14766 -0.538328 -0.733354 -0.415205 74 68 70
0.842254 -2.12662 9.47511 -0.606782 0.787639 -0.106961 87 88 82
0.752541 -2.08357 9.27103 0.231767 0.366209 -0.901207 86 88 82
1.18386 -2.11238 9.10036 -0.0639297 -0.405747 -0.911747 98 97 87
0.216963 -2.06002 9.59442 -0.537612 0.818474 -0.202664 82 81 78
0.666373 -2.12046 9.71006 -0.649622 -0.669467 -0.360284 86 86 83
0.723731 -2.09983 9.46833 -0.235803 0.928733 -0.286098 85 86 81
0.788675 -2.11887 9.56244 -0.669503 0.655516 -0.349378 84 85 80
0.84551 -2.11733 9.56627 -0.110562 0.920251 -0.375385 81 84 79
1.07058 -2.10005 9.13832 -0.539646 -0.73353 -0.413178 61 57 58
0.226878 -2.05313 9.69319 -0.420857 0.725111 -0.545063 78 77 73
0.485939 -2.07133 9.60701 -0.964961 -0.238009 -0.110461 82 84 78
0.487037 -2.07125 9.60691 -0.949044 -0.288861 -0.125995 82 84 78
0.850636 -2.07125 9.20976 -0.305134 0.920967 -0.242308 78 80 74
0.615633 -2.08021 9.66261 -0.950859 -0.289813 -0.108976 81 80 76
0.621319 -2.07914 9.69222 -0.932397 0.345407 -0.106442 80 80 75
0.809862 -2.07429 9.45172 -0.820386 0.380496 -0.426836 78 80 76
0.770605 -2.05795 9.32296 -0.325805 0.915755 -0.23504 87 88 82
0.877897 -2.06081 9.20204 -0.218973 0.92986 -0.295653 84 85 79
1.01742 -2.06588 9.18296 -0.99597 0.0682916 -0.058131 145 162 169
0.921734 -2.06826 9.3316 -0.482046 0.773845 -0.410847 87 88 82
1.01027 -2.04992 9.19457 -0.997179 -0.0180196 -0.0728722 144 155 161
0.48599 -2.03328 9.58223 -0.896928 0.140897 -0.419128 85 86 79
0.542758 -2.0354 9.5634 0.271098 0.485924 -0.830894 84 85 79
0.572598 -2.0399 9.58453 0.0791758 -0.47937 -0.874034 84 85 79
1.15661 -2.0439 9.09834 0.0283878 -0.0860051 -0.99589 93 91 86
0.565572 -2.02316 9.57196 -0.234712 0.927713 -0.290274 84 85 79
0.806909 -2.02507 9.35462 -0.802806 0.595936 -0.0190836 89 90 83
1.1166 -2.03875 9.12064 -0.0249147 -0.396754 -0.917587 71 67 68
1.13936 -2.03572 9.09829 -0.994475 -0.0754001 -0.0730292 77 71 71
1.16288 -2.03746 9.0943 -0.205089 -0.100762 -0.973543 99 98 90
0.595773 -2.01733 9.60011 -0.916328 -0.375182 -0.139933 78 79 74
0.803043 -2.03191 9.47401 -0.937469 0.209338 -0.278083 83 84 80
0.814617 -2.0325 9.46453 -0.987802 0.146593 -0.0525125 65 66 62
0.774915 -1.98075 9.1384 -0.998374 0.0565982 0.00671485 86 88 81
1.18539 -2.03121 9.09935 0.327772 0.0662446 -0.942432 88 89 80
0.645235 -1.99158 9.42934 0.0971261 -0.365797 -0.925613 85 85 80
0.799067 -2.01722 9.49574 -0.85506 -0.18085 -0.485969 85 86 84
0.807595 -2.01107 9.4901 -0.976562 0.206215 -0.0616654 84 84 83
0.816309 -2.01156 9.47188 -0.977816 0.155514 -0.140325 69 70 66
0.818476 -2.01984 9.46087 -0.248403 0.0433756 -0.967685 64 64 61
0.830754 -2.01019 9.38787 -0.999962 -0.00147236 -0.00854111 84 85 78
1.16255 -2.01081 9.07786 -0.158334 0.0780845 -0.984293 94 94 84
0.626022 -1.98395 9.42755 0.137945 -0.283694 -0.948941 84 84 79
0.712529 -1.9932 9.51014 0.178277 0.0836586 -0.980418 84 82 79
0.765568 -2.01104 9.54649 -0.404713 -0.579722 -0.707199 88 88 86
0.795405 -1.98455 9.30981 -0.999876 0.0145607 -0.0059979 85 85 79
0.818914 -1.99053 9.33912 -0.998574 0.053356 0.00165838 85 85 79
